ncols       160
nrows       65
xllcorner          137.8995833
yllcorner           35.1145833
cellsize             0.00250
NODATA_value       -999.9000
-999.9000 -999.9000 -999.9000 -999.9000 -999.9000 -999.9000 -999.9000 -999.9000 -999.9000 -999.9000 -999.9000 -999.9000 -999.9000 -999.9000 -999.9000 -999.9000 -999.9000 -999.9000 -999.9000 -999.9000 -999.9000 -999.9000 -999.9000 -999.9000 -999.9000 -999.9000 -999.9000 -999.9000 -999.9000 -999.9000 -999.9000 -999.9000 -999.9000 -999.9000 -999.9000 -999.9000 -999.9000 -999.9000 -999.9000 -999.9000 -999.9000 -999.9000 -999.9000 -999.9000 -999.9000 -999.9000 2017.14 1945.2 1806.72 1647.78 1542.64 1475.96 1401.38 1436.2 1574.98 1744.9 1806.64 1805.3 1825.14 1844.2 1749.36 1716.12 1692.42 1539.08 1404.36 1303.4 1195.1 1050.18 1050.18 1050.16 1114.78 1040.18 1026.28 1063.46 1030.56 992.62 1127.58 1317.3 1341.48 1195.96 1058.92 1061.52 1197.6 1319.64 1324.74 1439.62 1553.34 1553.24 1565.9 1623.82 1610.5 1657.08 1816.84 1988.04 2086.62 1977.9 1812.38 1697.26 1666.52 1611.36 1467.42 1383.66 1340.12 1431.88 1540.7 1505.24 1598.98 1625.08 1639.62 1738.84 1748.04 1673.06 1673.82 1666.56 1758.12 1922.28 1874.86 1726.0 1578.38 1408.2 1281.26 1220.02 1140.84 1048.7 1052.7 1029.12 1000.76 896.28 732.38 732.38 763.3 769.98 882.1 938.66 1045.1 977.18 940.96 961.1 910.88 830.8 953.4 964.28 982.66 1080.52 1177.96 1243.9 1313.46 1377.4 1494.98 1600.82 1656.22 -999.9000 -999.9000 -999.9000 -999.9000 -999.9000 -999.9000 -999.9000 -999.9000 -999.9000
-999.9000 -999.9000 -999.9000 -999.9000 -999.9000 -999.9000 -999.9000 -999.9000 -999.9000 -999.9000 -999.9000 -999.9000 -999.9000 -999.9000 -999.9000 -999.9000 -999.9000 -999.9000 -999.9000 -999.9000 -999.9000 -999.9000 -999.9000 -999.9000 -999.9000 -999.9000 -999.9000 -999.9000 -999.9000 -999.9000 -999.9000 -999.9000 -999.9000 -999.9000 -999.9000 -999.9000 -999.9000 -999.9000 -999.9000 -999.9000 -999.9000 -999.9000 -999.9000 -999.9000 -999.9000 -999.9000 2054.34 1973.9 1833.28 1685.68 1531.38 1384.82 1370.5 1494.82 1630.98 1710.24 1631.64 1614.22 1616.42 1709.64 1644.02 1519.72 1582.54 1640.14 1482.0 1305.8 1180.6 1151.74 1098.38 1068.74 992.88 992.88 1029.5 971.04 971.04 946.7 1097.28 1281.4 1221.86 1064.14 1036.28 1197.72 1300.28 1431.32 1481.02 1545.44 1673.36 1767.78 1752.78 1786.38 1762.18 1784.3 1832.2 1883.5 1964.52 1927.7 1799.6 1678.48 1527.26 1461.8 1442.1 1468.08 1394.4 1507.14 1632.74 1572.8 1598.04 1711.04 1770.88 1830.4 1880.9 1794.0 1811.52 1820.06 1869.86 1983.88 1884.58 1705.66 1587.24 1454.82 1463.32 1422.08 1284.48 1119.68 993.66 940.68 850.7 778.82 737.52 731.24 740.55 740.53 714.32 789.1 917.22 802.26 768.82 805.18 818.06 824.0 871.58 991.84 1087.82 1122.48 1135.16 1205.72 1260.14 1363.68 1478.28 1592.36 1669.775 -999.9000 -999.9000 -999.9000 -999.9000 -999.9000 -999.9000 -999.9000 -999.9000 -999.9000
-999.9000 -999.9000 -999.9000 -999.9000 -999.9000 -999.9000 -999.9000 -999.9000 -999.9000 -999.9000 -999.9000 -999.9000 -999.9000 -999.9000 -999.9000 -999.9000 -999.9000 -999.9000 -999.9000 -999.9000 -999.9000 -999.9000 -999.9000 -999.9000 -999.9000 -999.9000 -999.9000 -999.9000 -999.9000 -999.9000 -999.9000 -999.9000 -999.9000 -999.9000 -999.9000 -999.9000 -999.9000 -999.9000 -999.9000 -999.9000 -999.9000 -999.9000 -999.9000 -999.9000 2020.72 1933.4 1898.48 1864.88 1845.18 1705.46 1563.1 1497.22 1363.42 1356.16 1473.48 1541.68 1459.16 1407.72 1493.18 1619.4 1514.02 1388.5 1427.4 1478.54 1520.32 1441.96 1393.4 1354.84 1273.22 1131.4 992.88 982.8 977.88 1044.72 1054.1 946.7 1132.04 1220.48 1081.32 997.42 1122.9 1268.62 1423.16 1554.14 1649.9 1714.12 1766.38 1752.9 1700.62 1703.5 1647.96 1671.22 1633.24 1698.08 1841.24 1856.06 1709.96 1620.58 1609.1 1586.84 1628.58 1579.22 1444.8 1520.5 1677.86 1677.92 1664.92 1750.24 1846.96 1965.04 2020.64 1940.42 1973.52 1981.22 1997.26 2100.22 2035.26 1816.88 1648.06 1588.0 1590.74 1421.64 1227.72 1128.78 1157.18 1143.7 1009.4 934.62 907.44 759.48 712.9 680.56 680.56 720.46 789.0 724.26 829.92 856.54 851.78 911.54 896.78 1021.04 1133.7 1187.74 1247.04 1309.74 1343.64 1407.96 1501.72 1610.48 1685.7 -999.9000 -999.9000 -999.9000 -999.9000 -999.9000 -999.9000 -999.9000 -999.9000 -999.9000
-999.9000 -999.9000 -999.9000 -999.9000 -999.9000 -999.9000 -999.9000 -999.9000 -999.9000 -999.9000 -999.9000 -999.9000 -999.9000 -999.9000 -999.9000 -999.9000 -999.9000 -999.9000 -999.9000 -999.9000 -999.9000 -999.9000 -999.9000 -999.9000 -999.9000 -999.9000 -999.9000 -999.9000 -999.9000 -999.9000 -999.9000 -999.9000 -999.9000 -999.9000 -999.9000 -999.9000 -999.9000 -999.9000 -999.9000 -999.9000 -999.9000 -999.9000 -999.9000 -999.9000 1924.72 1797.28 1727.44 1692.52 1694.54 1739.58 1661.34 1557.8 1402.72 1281.8 1395.18 1355.44 1276.64 1321.22 1390.32 1482.72 1379.72 1234.5 1239.02 1326.02 1399.3 1389.6 1430.12 1480.56 1355.34 1262.58 1140.34 1104.52 1133.02 1141.86 946.7 946.7 1065.9 1032.7 965.5 1047.32 1166.04 1304.78 1452.84 1609.52 1722.32 1737.2 1664.28 1570.94 1559.6 1516.68 1520.42 1458.04 1472.88 1623.52 1775.66 1844.9 1781.72 1773.14 1771.1 1776.54 1782.56 1637.82 1510.64 1624.3 1749.78 1794.24 1817.46 1912.66 1947.12 2033.1 2065.08 2040.94 2027.52 2094.7 2117.6 2021.06 1943.5 1859.86 1823.5 1757.46 1604.86 1403.46 1282.02 1321.42 1333.4 1226.32 1184.68 1085.72 1006.48 895.62 766.2 680.56 790.38 832.2 820.58 714.46 836.84 971.64 1012.2 1053.56 964.76 965.02 1013.76 1087.28 1182.26 1286.32 1361.48 1433.06 1535.62 1640.14 1719.225 -999.9000 -999.9000 -999.9000 -999.9000 -999.9000 -999.9000 -999.9000 -999.9000 -999.9000
-999.9000 -999.9000 -999.9000 -999.9000 -999.9000 -999.9000 -999.9000 -999.9000 -999.9000 -999.9000 -999.9000 -999.9000 -999.9000 -999.9000 -999.9000 -999.9000 -999.9000 -999.9000 -999.9000 -999.9000 -999.9000 -999.9000 -999.9000 -999.9000 -999.9000 -999.9000 -999.9000 -999.9000 -999.9000 -999.9000 -999.9000 -999.9000 -999.9000 -999.9000 -999.9000 -999.9000 -999.9000 -999.9000 -999.9000 -999.9000 -999.9000 -999.9000 2016.18 1931.54 1825.24 1683.18 1594.9 1528.48 1494.78 1588.26 1485.64 1397.92 1394.3 1300.14 1276.02 1181.64 1160.16 1169.26 1264.8 1300.58 1281.08 1115.88 1077.72 1185.54 1153.6 1163.2 1250.24 1391.16 1486.4 1401.6 1349.4 1315.82 1334.64 1256.16 1123.06 991.32 921.98 926.98 1017.6 1101.64 1216.3 1380.06 1515.9 1608.7 1603.3 1549.18 1509.24 1408.68 1449.06 1368.86 1370.04 1302.34 1391.28 1552.34 1673.68 1810.9 1903.18 1963.24 1953.44 1925.3 1778.08 1653.82 1619.86 1768.7 1911.7 1971.56 1978.3 2059.52 2081.48 2011.16 1901.04 1848.72 1889.38 1971.18 2059.46 1945.46 1764.4 1707.78 1781.38 1806.2 1690.42 1543.14 1528.46 1517.3 1433.56 1299.74 1157.12 1007.06 914.18 832.6 707.92 680.56 680.56 711.7 726.5 707.72 763.9 869.44 1005.98 1144.36 1140.94 1103.26 1111.66 1155.58 1213.68 1290.02 1372.88 1450.02 1537.38 1606.68 1634.4 1644.26 -999.9000 -999.9000 -999.9000 -999.9000 -999.9000 -999.9000 -999.9000 -999.9000
-999.9000 -999.9000 -999.9000 -999.9000 -999.9000 -999.9000 -999.9000 -999.9000 -999.9000 -999.9000 -999.9000 -999.9000 -999.9000 -999.9000 -999.9000 -999.9000 -999.9000 -999.9000 -999.9000 -999.9000 -999.9000 -999.9000 -999.9000 -999.9000 -999.9000 -999.9000 -999.9000 -999.9000 -999.9000 -999.9000 -999.9000 -999.9000 -999.9000 -999.9000 -999.9000 -999.9000 -999.9000 -999.9000 -999.9000 -999.9000 -999.9000 2031.74 1907.88 1816.0 1725.9 1695.26 1673.02 1563.52 1404.08 1357.0 1308.94 1238.1 1214.6 1212.82 1175.7 1171.42 1224.28 1137.2 1180.74 1094.82 1137.56 1060.84 1054.78 1025.05 1025.03 1018.84 1149.82 1280.92 1413.06 1528.92 1560.06 1517.6 1474.48 1361.4 1228.06 1200.8 1113.92 921.98 1027.94 1127.66 1211.3 1331.86 1449.86 1476.98 1409.86 1391.58 1329.58 1274.44 1337.22 1243.06 1185.6 1225.84 1388.22 1494.74 1566.14 1706.08 1848.68 1991.28 2062.8 1918.22 1836.36 1716.5 1742.36 1809.34 1972.08 2094.86 2114.6 2131.52 2012.36 1854.28 1760.86 1690.78 1745.18 1820.16 1969.64 1880.78 1716.9 1569.68 1615.84 1726.38 1759.14 1727.04 1743.38 1591.2 1383.36 1243.66 1186.0 1105.44 1081.9 941.7 797.88 680.56 730.64 680.56 676.62 707.72 809.36 921.3 1001.88 1081.24 1111.28 1142.64 1191.96 1251.92 1286.42 1338.32 1364.42 1437.56 1455.62 1454.0 1525.6 1570.7 1621.44 -999.9000 -999.9000 -999.9000 -999.9000 -999.9000 -999.9000 -999.9000
-999.9000 -999.9000 -999.9000 -999.9000 -999.9000 -999.9000 -999.9000 -999.9000 -999.9000 -999.9000 -999.9000 -999.9000 -999.9000 -999.9000 -999.9000 -999.9000 -999.9000 -999.9000 -999.9000 -999.9000 -999.9000 -999.9000 -999.9000 -999.9000 -999.9000 -999.9000 -999.9000 -999.9000 -999.9000 -999.9000 -999.9000 -999.9000 -999.9000 -999.9000 -999.9000 -999.9000 -999.9000 -999.9000 -999.9000 -999.9000 -999.9000 1944.8 1881.46 1847.8 1844.08 1844.52 1776.06 1594.4 1499.78 1415.6 1347.94 1342.32 1276.7 1175.7 1264.86 1303.04 1291.0 1153.24 1113.78 1094.82 1068.55 1068.53 1184.32 1228.4 1173.9 1021.24 1017.8 1132.48 1255.72 1390.92 1589.38 1658.2 1553.98 1511.34 1403.64 1268.7 1112.44 965.7 896.7 1024.22 1195.62 1275.98 1260.2 1266.6 1248.76 1230.16 1152.74 1152.5 1113.72 1113.72 1178.68 1236.4 1291.9 1372.34 1484.76 1658.08 1791.92 1929.98 2046.34 1953.98 1832.46 1827.98 1923.76 1960.96 2041.08 2185.08 2158.84 2013.36 1887.34 1787.74 1614.12 1566.06 1681.76 1842.46 1930.84 1809.72 1650.38 1492.26 1439.78 1521.72 1512.28 1617.24 1656.48 1626.22 1488.74 1380.68 1353.62 1263.58 1163.38 1040.2 915.92 838.78 825.32 713.22 670.72 743.08 777.24 813.34 867.26 930.2 1010.52 1073.48 1128.48 1202.16 1268.06 1325.34 1306.48 1313.16 1280.66 1322.54 1441.8 1508.22 1584.0 1665.375 -999.9000 -999.9000 -999.9000 -999.9000 -999.9000 -999.9000
-999.9000 -999.9000 -999.9000 -999.9000 -999.9000 -999.9000 -999.9000 -999.9000 -999.9000 -999.9000 -999.9000 -999.9000 -999.9000 -999.9000 -999.9000 -999.9000 -999.9000 -999.9000 -999.9000 -999.9000 -999.9000 -999.9000 -999.9000 -999.9000 -999.9000 -999.9000 -999.9000 -999.9000 -999.9000 -999.9000 -999.9000 -999.9000 -999.9000 -999.9000 -999.9000 -999.9000 -999.9000 -999.9000 -999.9000 -999.9000 -999.9000 -999.9000 -999.9000 -999.9000 -999.9000 -999.9000 1814.38 1721.04 1672.74 1535.3 1428.54 1327.76 1195.72 1274.1 1412.12 1370.74 1258.28 1122.3 1113.78 1145.64 1166.72 1181.78 1272.26 1369.4 1266.86 1148.98 1033.44 1002.26 1191.7 1381.1 1586.82 1727.22 1715.1 1642.94 1517.52 1382.68 1229.62 1105.86 937.98 896.7 1069.78 1091.98 1055.36 1096.18 1047.72 1042.56 1042.58 1070.14 1148.94 1211.28 1297.66 1377.14 1422.82 1535.0 1540.54 1677.74 1867.08 2017.34 2049.06 1961.26 1995.74 2012.12 2068.4 2168.46 2200.98 2253.16 2112.88 1909.56 1809.32 1751.52 1640.78 1494.08 1608.1 1724.24 1755.42 1647.9 1605.64 1545.92 1320.06 1302.7 1356.96 1450.8 1458.0 1553.8 1497.8 1414.56 1320.3 1212.18 1187.2 1101.36 1016.48 907.98 757.26 677.28 666.9 666.9 664.3 664.3 731.34 831.98 916.46 1010.04 1073.9 1126.1 1205.12 1181.4 1145.6 1119.68 1229.14 1331.6 1423.14 1486.8 1551.44 1624.475 -999.9000 -999.9000 -999.9000 -999.9000 -999.9000 -999.9000
-999.9000 -999.9000 -999.9000 -999.9000 -999.9000 -999.9000 -999.9000 -999.9000 -999.9000 -999.9000 -999.9000 -999.9000 -999.9000 -999.9000 -999.9000 -999.9000 -999.9000 -999.9000 -999.9000 -999.9000 -999.9000 -999.9000 -999.9000 -999.9000 -999.9000 -999.9000 -999.9000 -999.9000 -999.9000 -999.9000 -999.9000 -999.9000 -999.9000 -999.9000 -999.9000 -999.9000 -999.9000 -999.9000 -999.9000 -999.9000 -999.9000 -999.9000 -999.9000 -999.9000 -999.9000 -999.9000 1827.22 1682.48 1576.0 1494.16 1349.18 1216.38 1244.26 1382.08 1481.98 1417.12 1276.42 1249.34 1247.12 1328.72 1269.9 1227.88 1366.7 1374.88 1219.84 1053.92 958.9 1072.72 1224.6 1372.94 1551.06 1670.28 1600.24 1501.32 1407.66 1343.34 1246.46 1169.92 999.3 880.28 878.12 950.42 919.34 1007.18 992.1 1092.0 1139.1 1182.74 1305.9 1315.12 1396.62 1533.56 1577.82 1638.14 1706.62 1709.64 1823.5 1995.1 2111.88 2046.54 2011.72 2047.38 2182.36 2245.96 2289.1 2230.92 2096.6 2023.54 1881.82 1702.26 1562.62 1402.84 1434.58 1507.24 1550.1 1503.6 1392.46 1441.32 1335.92 1172.56 1213.22 1248.74 1327.04 1434.7 1560.4 1492.44 1396.36 1265.68 1148.5 983.02 933.26 923.66 805.52 677.28 666.9 701.94 670.0 656.66 674.66 784.38 870.56 963.8 1022.38 1076.3 1106.68 998.46 1007.5 1130.76 1253.6 1357.6 1426.82 1481.16 1546.22 1610.08 -999.9000 -999.9000 -999.9000 -999.9000 -999.9000 -999.9000
-999.9000 -999.9000 -999.9000 -999.9000 -999.9000 -999.9000 -999.9000 -999.9000 -999.9000 -999.9000 -999.9000 -999.9000 -999.9000 -999.9000 -999.9000 -999.9000 -999.9000 -999.9000 -999.9000 -999.9000 -999.9000 -999.9000 -999.9000 -999.9000 -999.9000 -999.9000 -999.9000 -999.9000 -999.9000 -999.9000 -999.9000 -999.9000 -999.9000 -999.9000 -999.9000 -999.9000 -999.9000 -999.9000 -999.9000 -999.9000 -999.9000 -999.9000 -999.9000 -999.9000 -999.9000 -999.9000 1771.125 1682.64 1591.16 1462.9 1357.06 1308.58 1239.0 1278.4 1426.32 1502.76 1374.5 1401.9 1451.14 1423.4 1307.06 1341.76 1413.44 1313.6 1150.92 991.86 956.04 1100.48 1259.86 1415.9 1545.26 1585.18 1444.48 1316.86 1227.42 1221.86 1119.5 989.82 939.82 843.22 856.32 911.94 940.08 966.36 1042.26 1184.76 1299.8 1331.3 1434.56 1523.88 1526.26 1597.42 1747.92 1790.46 1837.78 1887.12 1949.7 2046.9 2009.34 1922.42 1860.04 1998.78 2095.18 2111.34 2160.58 2245.34 2188.4 1988.72 1789.78 1650.68 1613.6 1474.7 1294.86 1293.74 1430.34 1464.72 1305.18 1233.4 1235.4 1132.88 1115.92 1234.66 1335.3 1470.52 1625.78 1576.56 1419.98 1275.88 1144.18 1051.82 952.98 881.18 830.62 773.6 765.94 719.1 674.86 653.54 655.0 720.66 809.78 918.18 990.34 996.06 976.08 895.52 978.02 1084.52 1217.3 1307.74 1393.38 1484.6 1544.22 1614.02 -999.9000 -999.9000 -999.9000 -999.9000 -999.9000 -999.9000
-999.9000 -999.9000 -999.9000 -999.9000 -999.9000 -999.9000 -999.9000 -999.9000 -999.9000 -999.9000 -999.9000 -999.9000 -999.9000 -999.9000 -999.9000 -999.9000 -999.9000 -999.9000 -999.9000 -999.9000 -999.9000 -999.9000 -999.9000 -999.9000 -999.9000 -999.9000 -999.9000 -999.9000 -999.9000 -999.9000 -999.9000 -999.9000 -999.9000 -999.9000 -999.9000 -999.9000 -999.9000 -999.9000 -999.9000 -999.9000 -999.9000 -999.9000 -999.9000 -999.9000 -999.9000 -999.9000 1744.9 1650.6 1591.9 1471.94 1366.32 1277.62 1277.62 1324.7 1452.86 1598.56 1555.16 1601.16 1561.26 1396.74 1408.92 1513.54 1501.38 1341.88 1183.44 1006.18 956.04 1141.88 1242.22 1285.84 1388.56 1424.14 1372.72 1208.42 1066.56 1035.88 991.36 843.22 843.22 843.22 990.36 1058.56 1124.42 1156.74 1186.02 1163.86 1267.2 1417.7 1557.26 1678.1 1726.08 1716.68 1804.14 1851.78 1848.62 1952.66 1943.84 1943.7 1894.02 1818.06 1783.88 1874.54 1920.1 2003.76 2074.04 2058.5 2107.06 1957.38 1872.7 1791.28 1670.04 1499.0 1352.28 1210.24 1263.5 1256.9 1188.12 1100.02 1074.74 1049.52 1187.88 1307.36 1428.48 1564.8 1663.02 1568.52 1404.58 1300.32 1199.92 1143.26 1100.02 1061.38 954.52 850.22 782.86 740.96 684.14 650.26 655.32 744.42 809.36 894.24 929.98 873.04 829.82 895.74 1005.62 1109.82 1232.88 1328.82 1387.36 1463.46 1539.54 1602.575 -999.9000 -999.9000 -999.9000 -999.9000 -999.9000 -999.9000
-999.9000 -999.9000 -999.9000 -999.9000 -999.9000 -999.9000 -999.9000 -999.9000 -999.9000 -999.9000 -999.9000 -999.9000 -999.9000 -999.9000 -999.9000 -999.9000 -999.9000 -999.9000 -999.9000 -999.9000 -999.9000 -999.9000 -999.9000 -999.9000 -999.9000 -999.9000 -999.9000 -999.9000 -999.9000 -999.9000 -999.9000 -999.9000 -999.9000 -999.9000 -999.9000 -999.9000 -999.9000 -999.9000 -999.9000 -999.9000 -999.9000 -999.9000 -999.9000 -999.9000 -999.9000 -999.9000 1672.82 1529.88 1408.22 1333.86 1296.28 1365.3 1462.62 1454.7 1533.58 1663.1 1739.06 1674.6 1534.02 1506.88 1544.92 1607.88 1570.88 1444.34 1278.32 1072.24 899.5 953.32 1036.46 1092.98 1163.42 1300.64 1402.34 1236.92 1090.72 935.7 817.04 861.48 843.22 1039.9 1139.16 1213.66 1245.38 1326.8 1392.2 1333.9 1317.0 1395.08 1539.76 1723.12 1847.28 1861.78 1850.88 1798.24 1833.94 1853.64 1756.92 1770.28 1715.18 1671.26 1679.14 1697.34 1849.1 1921.82 1828.58 1858.54 1998.72 2051.98 1945.38 1754.26 1590.72 1406.34 1320.36 1225.38 1128.6 1095.2 1080.22 1020.7 981.4 1097.8 1250.26 1382.02 1498.2 1495.86 1549.54 1616.44 1554.36 1421.36 1315.54 1275.68 1240.04 1099.2 1050.36 946.6 832.82 778.44 739.24 650.26 668.92 749.36 822.02 892.4 829.1 771.46 867.18 950.66 1001.78 1121.1 1245.0 1322.02 1369.7 1443.36 1517.0 -999.9000 -999.9000 -999.9000 -999.9000 -999.9000 -999.9000 -999.9000
-999.9000 -999.9000 -999.9000 -999.9000 -999.9000 -999.9000 -999.9000 -999.9000 -999.9000 -999.9000 -999.9000 -999.9000 -999.9000 -999.9000 -999.9000 -999.9000 -999.9000 -999.9000 -999.9000 -999.9000 -999.9000 -999.9000 -999.9000 -999.9000 -999.9000 -999.9000 -999.9000 -999.9000 -999.9000 -999.9000 -999.9000 -999.9000 -999.9000 -999.9000 -999.9000 -999.9000 -999.9000 -999.9000 -999.9000 -999.9000 -999.9000 -999.9000 -999.9000 -999.9000 -999.9000 -999.9000 1638.28 1501.8 1348.8 1360.28 1431.16 1472.9 1495.12 1584.04 1685.12 1761.36 1794.0 1670.82 1649.82 1706.04 1724.18 1700.22 1619.76 1522.42 1312.16 1154.42 1017.06 872.66 848.94 954.08 1135.54 1311.98 1406.9 1226.22 1035.0 887.52 817.04 843.22 944.5 1087.26 1213.56 1284.12 1353.56 1458.3 1547.94 1514.22 1500.38 1576.74 1648.36 1782.8 1828.26 1776.58 1722.16 1735.26 1838.92 1735.24 1616.34 1558.5 1510.82 1557.62 1531.76 1624.04 1766.16 1754.08 1674.96 1803.2 1892.18 1949.96 1863.74 1755.12 1633.76 1535.52 1500.38 1378.74 1258.94 1267.6 1282.6 1126.02 1002.78 981.4 1156.76 1289.44 1326.22 1334.12 1480.4 1611.76 1641.44 1528.4 1416.98 1394.82 1288.12 1211.62 1109.68 982.8 875.58 816.56 750.32 684.96 649.16 664.1 751.5 731.8 731.8 801.48 877.32 970.42 1060.4 1119.54 1181.12 1258.34 1347.6 1431.52 1498.3 1544.7 -999.9000 -999.9000 -999.9000 -999.9000 -999.9000 -999.9000
-999.9000 -999.9000 -999.9000 -999.9000 -999.9000 -999.9000 -999.9000 -999.9000 -999.9000 -999.9000 -999.9000 -999.9000 -999.9000 -999.9000 -999.9000 -999.9000 -999.9000 -999.9000 -999.9000 -999.9000 -999.9000 -999.9000 -999.9000 -999.9000 -999.9000 -999.9000 -999.9000 -999.9000 -999.9000 -999.9000 -999.9000 -999.9000 -999.9000 -999.9000 -999.9000 -999.9000 -999.9000 -999.9000 -999.9000 -999.9000 -999.9000 -999.9000 -999.9000 -999.9000 -999.9000 1714.1 1574.52 1426.34 1372.66 1363.2 1522.06 1634.4 1638.34 1702.62 1816.96 1883.8 1834.04 1806.78 1836.34 1863.62 1824.3 1700.82 1528.02 1420.14 1337.18 1248.28 1074.84 843.16 843.16 1012.66 1143.42 1188.12 1291.26 1253.08 1072.12 871.06 817.02 852.78 967.08 976.68 1017.82 1116.06 1219.82 1341.42 1465.4 1524.14 1555.18 1667.48 1773.44 1836.94 1716.58 1619.3 1652.6 1786.12 1798.74 1679.12 1548.94 1417.1 1352.86 1478.98 1489.08 1529.44 1571.5 1528.58 1540.58 1706.06 1869.22 1879.24 1799.92 1822.5 1782.44 1696.0 1614.84 1463.78 1373.68 1382.18 1381.66 1216.4 1072.26 940.68 1033.48 1126.42 1162.56 1276.04 1379.58 1468.58 1607.92 1594.54 1536.08 1479.06 1311.2 1217.8 1090.7 943.18 947.86 846.18 850.1 755.9 663.74 643.9 676.52 745.12 813.64 866.74 918.8 965.06 987.74 993.28 1138.08 1250.04 1331.82 1407.9 1488.24 -999.9000 -999.9000 -999.9000 -999.9000 -999.9000 -999.9000 -999.9000
-999.9000 -999.9000 -999.9000 -999.9000 -999.9000 -999.9000 -999.9000 -999.9000 -999.9000 -999.9000 -999.9000 -999.9000 -999.9000 -999.9000 -999.9000 -999.9000 -999.9000 -999.9000 -999.9000 -999.9000 -999.9000 -999.9000 -999.9000 -999.9000 -999.9000 -999.9000 -999.9000 -999.9000 -999.9000 -999.9000 -999.9000 -999.9000 -999.9000 -999.9000 -999.9000 -999.9000 -999.9000 -999.9000 -999.9000 -999.9000 -999.9000 -999.9000 -999.9000 -999.9000 -999.9000 -999.9000 1574.6 1499.96 1479.46 1388.52 1516.84 1691.92 1812.86 1863.48 1907.14 1962.74 1967.98 1991.54 1935.22 1861.5 1795.26 1656.72 1515.88 1363.0 1195.34 1094.1 1018.54 884.34 818.86 910.34 958.5 1018.44 1136.8 1212.34 1137.98 957.62 876.76 781.14 781.14 787.6 901.08 1025.02 1131.86 1216.92 1303.7 1369.96 1451.7 1609.88 1773.46 1782.26 1643.86 1546.0 1694.08 1801.56 1689.98 1586.06 1438.66 1301.92 1276.14 1454.0 1456.7 1346.12 1363.32 1454.04 1585.04 1747.68 1873.2 1727.7 1603.94 1677.78 1635.7 1683.32 1700.6 1636.5 1534.24 1504.54 1422.4 1276.28 1160.44 1004.76 917.88 974.66 1051.5 1169.24 1294.86 1435.78 1589.78 1663.08 1624.88 1486.52 1335.48 1193.76 1103.88 1082.8 1016.0 977.12 920.48 814.94 701.16 641.38 641.38 768.64 771.92 731.2 774.38 820.58 883.08 999.8 1073.72 1209.0 1316.22 1384.2 1457.62 -999.9000 -999.9000 -999.9000 -999.9000 -999.9000 -999.9000 -999.9000
-999.9000 -999.9000 -999.9000 -999.9000 -999.9000 -999.9000 -999.9000 -999.9000 -999.9000 -999.9000 -999.9000 -999.9000 -999.9000 -999.9000 -999.9000 -999.9000 -999.9000 -999.9000 -999.9000 -999.9000 -999.9000 -999.9000 -999.9000 -999.9000 -999.9000 -999.9000 -999.9000 -999.9000 -999.9000 -999.9000 -999.9000 -999.9000 -999.9000 -999.9000 -999.9000 -999.9000 -999.9000 -999.9000 -999.9000 -999.9000 -999.9000 -999.9000 -999.9000 -999.9000 -999.9000 -999.9000 -999.9000 1642.4 1602.5 1443.94 1524.84 1653.54 1756.02 1778.76 1840.26 1960.26 2080.64 2037.46 1898.2 1741.16 1664.3 1573.16 1409.96 1281.3 1152.4 1179.56 1147.18 1016.54 886.6 815.58 792.06 870.76 958.58 1043.04 1008.18 916.34 881.38 850.06 762.9 847.38 999.78 1133.58 1206.86 1245.26 1267.74 1383.52 1525.64 1663.06 1796.2 1749.7 1586.98 1505.86 1637.48 1749.06 1624.46 1465.38 1333.6 1190.66 1236.54 1278.42 1249.46 1340.66 1452.1 1555.02 1673.5 1816.48 1819.42 1652.22 1460.06 1479.26 1426.74 1470.54 1594.26 1695.96 1588.62 1413.52 1297.12 1241.7 1122.52 985.26 889.04 981.7 1136.3 1281.68 1334.3 1454.78 1577.74 1557.84 1639.26 1523.48 1362.38 1254.52 1238.68 1162.8 1152.94 1083.16 923.9 806.08 769.3 721.96 656.78 641.38 678.64 779.84 854.1 903.18 970.08 1094.74 1205.48 1271.14 1338.26 1417.48 1469.32 -999.9000 -999.9000 -999.9000 -999.9000 -999.9000 -999.9000 -999.9000
-999.9000 -999.9000 -999.9000 -999.9000 -999.9000 -999.9000 -999.9000 -999.9000 -999.9000 -999.9000 -999.9000 -999.9000 -999.9000 -999.9000 -999.9000 -999.9000 -999.9000 -999.9000 -999.9000 -999.9000 -999.9000 -999.9000 -999.9000 -999.9000 -999.9000 -999.9000 -999.9000 -999.9000 -999.9000 -999.9000 -999.9000 -999.9000 -999.9000 -999.9000 -999.9000 -999.9000 -999.9000 -999.9000 -999.9000 -999.9000 -999.9000 -999.9000 -999.9000 -999.9000 -999.9000 -999.9000 -999.9000 -999.9000 -999.9000 1610.7 1527.96 1574.0 1647.1 1748.64 1899.18 2011.88 2125.88 2075.66 1966.86 1839.98 1777.28 1618.9 1420.06 1315.26 1294.98 1319.92 1209.96 1113.96 1106.8 990.32 861.0 774.46 836.04 938.4 819.9 728.3 736.96 755.84 762.9 931.9 1105.94 1249.68 1384.08 1440.64 1458.38 1450.74 1554.68 1718.88 1808.62 1673.34 1523.24 1411.02 1536.68 1672.46 1603.68 1391.34 1257.44 1135.42 1149.08 1247.96 1346.24 1473.14 1606.72 1714.04 1832.46 1910.82 1758.38 1574.24 1457.38 1343.06 1258.84 1378.08 1435.44 1541.12 1509.68 1363.22 1207.84 1064.28 964.98 858.96 892.82 1065.92 1115.48 1169.56 1276.76 1409.22 1517.1 1463.52 1544.84 1532.68 1441.34 1361.66 1291.08 1225.12 1217.32 1073.04 991.32 909.34 870.88 831.62 761.66 641.38 654.72 771.34 869.76 968.84 1061.1 1144.16 1225.64 1289.52 1346.0 1423.98 1481.6 -999.9000 -999.9000 -999.9000 -999.9000 -999.9000 -999.9000 -999.9000
-999.9000 -999.9000 -999.9000 -999.9000 -999.9000 -999.9000 -999.9000 -999.9000 -999.9000 -999.9000 -999.9000 -999.9000 -999.9000 -999.9000 -999.9000 -999.9000 -999.9000 -999.9000 -999.9000 -999.9000 -999.9000 -999.9000 -999.9000 -999.9000 -999.9000 -999.9000 -999.9000 -999.9000 -999.9000 -999.9000 -999.9000 -999.9000 -999.9000 -999.9000 -999.9000 -999.9000 -999.9000 -999.9000 -999.9000 -999.9000 -999.9000 -999.9000 -999.9000 -999.9000 -999.9000 -999.9000 -999.9000 -999.9000 -999.9000 -999.9000 -999.9000 1659.2 1705.6 1808.32 1923.04 2040.62 2037.48 2045.32 2037.38 1908.08 1753.98 1584.18 1505.4 1495.66 1453.76 1439.56 1391.42 1352.24 1248.5 1089.66 951.4 864.38 774.46 796.6 711.34 744.82 728.3 843.28 922.96 1005.54 1083.12 1201.02 1368.28 1537.16 1601.2 1595.02 1660.7 1752.0 1761.18 1623.94 1480.68 1342.0 1408.88 1507.96 1536.14 1414.16 1314.54 1135.22 1179.8 1368.3 1494.94 1611.12 1731.62 1845.82 1933.5 1895.48 1764.0 1661.36 1460.02 1327.26 1166.5 1212.26 1325.6 1369.36 1388.44 1283.6 1126.52 974.54 841.9 832.6 891.56 935.12 985.94 1117.0 1234.64 1387.2 1389.62 1324.62 1413.26 1426.52 1306.58 1210.38 1138.08 1078.56 1149.24 1104.2 1069.08 1012.86 930.72 876.8 808.4 680.68 635.77 717.7 820.12 918.72 1009.1 1138.74 1203.32 1216.18 1265.32 1361.28 1460.24 -999.9000 -999.9000 -999.9000 -999.9000 -999.9000 -999.9000 -999.9000
-999.9000 -999.9000 -999.9000 -999.9000 -999.9000 -999.9000 -999.9000 -999.9000 -999.9000 -999.9000 -999.9000 -999.9000 -999.9000 -999.9000 -999.9000 -999.9000 -999.9000 -999.9000 -999.9000 -999.9000 -999.9000 -999.9000 -999.9000 -999.9000 -999.9000 -999.9000 -999.9000 -999.9000 -999.9000 -999.9000 -999.9000 -999.9000 -999.9000 -999.9000 -999.9000 -999.9000 -999.9000 -999.9000 -999.9000 -999.9000 -999.9000 -999.9000 -999.9000 -999.9000 -999.9000 -999.9000 -999.9000 -999.9000 -999.9000 -999.9000 -999.9000 -999.9000 -999.9000 1840.8 1957.62 2000.98 1878.48 1880.54 1873.62 1869.2 1818.86 1750.84 1717.38 1642.4 1557.02 1451.74 1384.58 1310.92 1237.78 1172.78 1093.16 1018.16 836.06 758.38 818.44 700.84 691.9 844.7 1001.94 1152.82 1247.38 1323.96 1431.74 1469.12 1539.56 1607.1 1582.54 1636.44 1747.1 1697.38 1539.6 1379.2 1274.62 1338.26 1414.14 1257.02 1140.88 1054.18 1184.12 1328.24 1509.02 1671.06 1788.7 1765.14 1873.38 1846.68 1737.88 1682.8 1528.36 1349.48 1133.22 1085.34 1155.48 1245.04 1175.36 1176.78 1149.92 1035.36 939.2 874.2 777.8 854.58 1038.1 1193.26 1324.46 1424.6 1317.04 1175.56 1253.64 1318.28 1260.22 1130.32 1006.5 961.84 1039.68 942.34 920.28 917.8 825.78 776.98 707.14 635.76 657.34 702.94 799.8 917.1 1031.94 1089.8 1109.1 1101.7 1176.94 1291.74 1420.64 -999.9000 -999.9000 -999.9000 -999.9000 -999.9000 -999.9000 -999.9000
-999.9000 -999.9000 -999.9000 -999.9000 -999.9000 -999.9000 -999.9000 -999.9000 -999.9000 -999.9000 -999.9000 -999.9000 -999.9000 -999.9000 -999.9000 -999.9000 -999.9000 -999.9000 -999.9000 -999.9000 -999.9000 -999.9000 -999.9000 -999.9000 -999.9000 -999.9000 -999.9000 -999.9000 -999.9000 -999.9000 -999.9000 -999.9000 -999.9000 -999.9000 -999.9000 -999.9000 -999.9000 -999.9000 -999.9000 -999.9000 -999.9000 -999.9000 -999.9000 -999.9000 -999.9000 -999.9000 -999.9000 -999.9000 -999.9000 -999.9000 -999.9000 -999.9000 -999.9000 -999.9000 2003.15 1954.7 1840.62 1745.98 1686.5 1688.98 1750.76 1754.7 1704.48 1636.36 1559.24 1403.82 1268.74 1148.84 1036.56 1019.52 1056.16 978.12 868.62 780.08 708.12 731.64 691.9 778.54 934.0 1081.72 1237.7 1248.0 1272.42 1344.16 1498.32 1502.54 1424.42 1510.06 1623.9 1676.98 1509.84 1399.62 1319.84 1196.28 1221.38 1103.5 1035.64 1141.24 1258.08 1429.18 1558.24 1637.76 1635.8 1548.98 1627.36 1733.6 1608.26 1504.0 1473.16 1362.8 1188.1 1028.3 993.26 1060.6 1002.1 1018.58 1086.1 1001.66 886.42 758.04 758.04 868.7 1006.74 1166.34 1334.72 1397.58 1247.88 961.84 1120.22 1223.98 1117.96 1065.1 949.26 893.24 989.12 897.78 791.88 792.22 701.62 655.86 635.76 704.04 737.46 786.88 757.64 849.56 921.06 940.74 989.64 1068.62 1183.36 1320.0 1410.0 -999.9000 -999.9000 -999.9000 -999.9000 -999.9000 -999.9000 -999.9000
-999.9000 -999.9000 -999.9000 -999.9000 -999.9000 -999.9000 -999.9000 -999.9000 -999.9000 -999.9000 -999.9000 -999.9000 -999.9000 -999.9000 -999.9000 -999.9000 -999.9000 -999.9000 -999.9000 -999.9000 -999.9000 -999.9000 -999.9000 -999.9000 -999.9000 -999.9000 -999.9000 -999.9000 -999.9000 -999.9000 -999.9000 -999.9000 -999.9000 -999.9000 -999.9000 -999.9000 -999.9000 -999.9000 -999.9000 -999.9000 -999.9000 -999.9000 -999.9000 -999.9000 -999.9000 -999.9000 -999.9000 -999.9000 -999.9000 -999.9000 -999.9000 -999.9000 -999.9000 -999.9000 1958.425 1858.86 1751.56 1715.68 1623.08 1509.4 1556.16 1578.52 1636.08 1526.0 1450.28 1373.44 1200.88 1051.64 936.24 913.78 881.06 865.48 779.86 779.86 825.3 731.64 691.88 857.44 1005.52 1139.94 1122.44 1109.0 1217.92 1381.1 1461.82 1347.48 1270.14 1386.72 1542.82 1660.18 1604.66 1525.14 1377.48 1205.3 1101.26 1090.78 1004.04 1061.1 1224.14 1370.2 1467.9 1402.62 1464.3 1459.34 1461.44 1632.92 1612.52 1391.56 1269.26 1214.8 1112.3 1055.28 892.12 856.54 808.14 890.1 945.1 819.34 747.82 758.04 839.16 924.86 1001.12 1136.34 1300.92 1309.1 1156.98 943.86 1065.18 1158.08 1016.74 925.38 843.48 902.22 935.24 831.5 738.74 690.78 636.01 635.75 678.26 718.12 813.0 882.02 905.94 898.52 975.18 990.76 1092.4 1154.48 1229.5 1340.9 -999.9000 -999.9000 -999.9000 -999.9000 -999.9000 -999.9000 -999.9000 -999.9000
-999.9000 -999.9000 -999.9000 -999.9000 -999.9000 -999.9000 -999.9000 -999.9000 -999.9000 -999.9000 -999.9000 -999.9000 -999.9000 -999.9000 -999.9000 -999.9000 -999.9000 -999.9000 -999.9000 -999.9000 -999.9000 -999.9000 -999.9000 -999.9000 -999.9000 -999.9000 -999.9000 -999.9000 -999.9000 -999.9000 -999.9000 -999.9000 -999.9000 -999.9000 -999.9000 -999.9000 -999.9000 -999.9000 -999.9000 -999.9000 -999.9000 -999.9000 -999.9000 -999.9000 -999.9000 -999.9000 -999.9000 -999.9000 -999.9000 -999.9000 -999.9000 -999.9000 -999.9000 -999.9000 1903.6 1736.68 1632.44 1550.1 1511.06 1365.48 1388.74 1445.04 1550.92 1488.06 1347.56 1239.72 1141.74 1028.18 1051.94 981.06 849.8 822.66 895.24 934.44 816.66 672.02 672.02 825.06 1010.38 1022.74 960.76 1078.54 1242.22 1361.58 1276.26 1178.62 1194.66 1323.42 1458.62 1612.68 1635.48 1466.2 1308.1 1201.04 1195.5 1043.4 969.24 1010.94 1171.92 1239.08 1258.7 1234.66 1302.98 1324.6 1307.14 1417.62 1539.3 1453.48 1331.02 1246.66 1111.74 1011.3 961.6 935.66 836.08 738.42 816.88 726.58 775.64 875.94 1005.44 1082.26 1157.88 1229.04 1306.38 1172.8 1047.14 905.18 958.66 1054.56 992.5 875.7 803.42 882.98 835.02 742.02 696.22 680.88 635.99 635.74 740.48 756.02 803.54 919.08 998.34 1031.6 1084.58 1116.56 1158.52 1215.76 1281.5 1368.72 -999.9000 -999.9000 -999.9000 -999.9000 -999.9000 -999.9000 -999.9000 -999.9000
-999.9000 -999.9000 -999.9000 -999.9000 -999.9000 -999.9000 -999.9000 -999.9000 -999.9000 -999.9000 -999.9000 -999.9000 -999.9000 -999.9000 -999.9000 -999.9000 -999.9000 -999.9000 -999.9000 -999.9000 -999.9000 -999.9000 -999.9000 -999.9000 -999.9000 -999.9000 -999.9000 -999.9000 -999.9000 -999.9000 -999.9000 -999.9000 -999.9000 -999.9000 -999.9000 -999.9000 -999.9000 -999.9000 -999.9000 -999.9000 -999.9000 -999.9000 -999.9000 -999.9000 -999.9000 -999.9000 -999.9000 -999.9000 -999.9000 -999.9000 -999.9000 -999.9000 -999.9000 -999.9000 1926.86 1830.46 1699.86 1533.02 1365.48 1439.78 1338.9 1321.22 1449.8 1373.58 1267.62 1140.74 1063.6 1154.82 1218.28 1110.62 1041.56 959.04 831.72 773.74 672.02 720.44 789.2 819.48 875.2 821.48 907.56 1070.78 1209.1 1193.38 1120.78 1041.68 1204.44 1346.22 1512.4 1657.64 1565.54 1409.52 1324.42 1351.5 1209.26 1024.32 918.78 918.78 986.94 1026.02 1098.92 1102.28 1089.04 1129.56 1211.44 1382.66 1557.42 1512.06 1375.3 1302.28 1201.62 1154.56 1048.24 955.78 847.26 717.52 684.38 753.78 823.34 947.02 1073.66 1157.76 1242.5 1291.22 1259.06 1112.6 998.04 944.0 853.2 913.34 840.1 794.74 752.64 782.02 765.02 690.84 665.82 641.06 634.41 634.43 684.74 769.44 800.18 827.74 882.44 946.12 1025.34 1128.12 1242.38 1287.02 1340.14 1400.84 -999.9000 -999.9000 -999.9000 -999.9000 -999.9000 -999.9000 -999.9000 -999.9000
-999.9000 -999.9000 -999.9000 -999.9000 -999.9000 -999.9000 -999.9000 -999.9000 -999.9000 -999.9000 -999.9000 -999.9000 -999.9000 -999.9000 -999.9000 -999.9000 -999.9000 -999.9000 -999.9000 -999.9000 -999.9000 -999.9000 -999.9000 -999.9000 -999.9000 -999.9000 -999.9000 -999.9000 -999.9000 -999.9000 -999.9000 -999.9000 -999.9000 -999.9000 -999.9000 -999.9000 -999.9000 -999.9000 -999.9000 -999.9000 -999.9000 -999.9000 -999.9000 -999.9000 -999.9000 -999.9000 -999.9000 -999.9000 -999.9000 -999.9000 -999.9000 -999.9000 -999.9000 -999.9000 1957.72 1790.36 1627.28 1528.3 1579.6 1516.34 1386.5 1279.68 1283.68 1231.64 1126.0 1118.66 1236.64 1260.66 1143.08 1094.58 1007.88 858.46 719.12 698.94 656.1 710.36 656.1 628.0 669.5 744.58 897.34 1023.82 1026.48 982.18 950.56 1025.6 1181.36 1388.84 1548.0 1621.5 1560.9 1499.12 1465.84 1357.34 1201.0 1118.8 983.66 945.06 891.56 851.42 919.12 904.36 971.9 1064.74 1234.82 1403.04 1553.2 1441.5 1256.9 1142.52 1076.96 1025.62 935.36 787.84 684.38 684.38 777.7 900.72 963.12 1024.0 1140.56 1189.24 1106.88 1093.74 1084.7 1056.1 917.36 884.64 793.4 787.74 746.62 735.96 741.18 732.48 776.2 671.76 634.18 633.0 633.1 672.58 730.12 709.98 773.22 836.44 894.74 1021.26 1051.24 1128.34 1241.12 1307.18 1370.46 1428.55 -999.9000 -999.9000 -999.9000 -999.9000 -999.9000 -999.9000 -999.9000 -999.9000
-999.9000 -999.9000 -999.9000 -999.9000 -999.9000 -999.9000 -999.9000 -999.9000 -999.9000 -999.9000 -999.9000 -999.9000 -999.9000 -999.9000 -999.9000 -999.9000 -999.9000 -999.9000 -999.9000 -999.9000 -999.9000 -999.9000 -999.9000 -999.9000 -999.9000 -999.9000 -999.9000 -999.9000 -999.9000 -999.9000 -999.9000 -999.9000 -999.9000 -999.9000 -999.9000 -999.9000 -999.9000 -999.9000 -999.9000 -999.9000 -999.9000 -999.9000 -999.9000 -999.9000 -999.9000 -999.9000 -999.9000 -999.9000 -999.9000 -999.9000 -999.9000 -999.9000 -999.9000 -999.9000 1880.76 1730.04 1692.0 1713.46 1656.04 1555.12 1419.46 1280.8 1181.42 1165.28 1197.66 1303.98 1362.12 1225.66 1068.24 921.38 820.68 764.48 725.84 795.18 789.1 656.1 676.16 697.68 628.0 671.5 801.8 840.62 814.0 866.12 981.5 1094.3 1225.9 1359.76 1392.14 1511.74 1665.1 1655.24 1530.54 1389.98 1272.02 1135.02 1091.02 1147.76 1028.96 880.04 814.38 952.78 1062.5 1160.26 1303.0 1444.9 1549.74 1470.26 1331.96 1150.98 974.2 849.76 779.36 682.92 729.6 813.14 925.56 1001.42 1072.64 1118.34 1173.26 1115.54 982.68 917.66 902.6 949.28 839.52 744.9 784.26 780.7 742.16 728.08 758.62 696.66 736.18 655.82 633.0 633.0 664.68 736.36 792.54 808.08 886.08 939.48 917.66 1014.84 1092.38 1171.72 1248.58 1300.5 1353.5 1415.15 -999.9000 -999.9000 -999.9000 -999.9000 -999.9000 -999.9000 -999.9000 -999.9000
-999.9000 -999.9000 -999.9000 -999.9000 -999.9000 -999.9000 -999.9000 -999.9000 -999.9000 -999.9000 -999.9000 -999.9000 -999.9000 -999.9000 -999.9000 -999.9000 -999.9000 -999.9000 -999.9000 -999.9000 -999.9000 -999.9000 -999.9000 -999.9000 -999.9000 -999.9000 -999.9000 -999.9000 -999.9000 -999.9000 -999.9000 -999.9000 -999.9000 -999.9000 -999.9000 -999.9000 -999.9000 -999.9000 -999.9000 -999.9000 -999.9000 -999.9000 -999.9000 -999.9000 -999.9000 -999.9000 -999.9000 -999.9000 -999.9000 -999.9000 -999.9000 -999.9000 -999.9000 -999.9000 1937.35 1891.86 1887.18 1844.64 1730.36 1661.46 1514.28 1450.22 1382.82 1365.26 1390.9 1401.82 1280.88 1190.54 1052.92 865.76 776.86 835.38 824.06 939.1 964.36 873.6 837.32 908.78 831.68 628.0 643.66 715.2 860.88 1016.66 1134.96 1196.72 1199.1 1229.72 1390.88 1550.3 1565.06 1597.1 1561.8 1385.38 1260.76 1236.16 1275.3 1267.72 1048.7 910.4 771.56 824.96 954.7 1068.98 1198.7 1305.1 1425.9 1462.52 1317.86 1205.34 1075.22 984.28 882.74 712.04 682.92 807.46 917.94 1049.46 1148.76 1202.22 1117.86 998.7 924.38 809.48 772.02 760.64 602.27 728.98 728.96 733.92 635.24 633.26 663.06 662.56 632.0 632.01 632.88 642.88 722.02 800.52 842.9 857.2 875.36 901.84 987.8 1001.1 1106.58 1196.08 1240.34 1289.22 1354.22 1427.12 -999.9000 -999.9000 -999.9000 -999.9000 -999.9000 -999.9000 -999.9000 -999.9000
-999.9000 -999.9000 -999.9000 -999.9000 -999.9000 -999.9000 -999.9000 -999.9000 -999.9000 -999.9000 -999.9000 -999.9000 -999.9000 -999.9000 -999.9000 -999.9000 -999.9000 -999.9000 -999.9000 -999.9000 -999.9000 -999.9000 -999.9000 -999.9000 -999.9000 -999.9000 -999.9000 -999.9000 -999.9000 -999.9000 -999.9000 -999.9000 -999.9000 -999.9000 -999.9000 -999.9000 -999.9000 -999.9000 -999.9000 -999.9000 -999.9000 -999.9000 -999.9000 -999.9000 -999.9000 -999.9000 -999.9000 -999.9000 -999.9000 -999.9000 -999.9000 -999.9000 -999.9000 -999.9000 -999.9000 2019.2 1965.28 1823.18 1668.94 1556.1 1527.66 1451.5 1373.02 1318.6 1330.12 1317.16 1194.64 1034.52 996.7 889.68 794.16 936.22 1028.14 1085.02 1075.52 969.14 1018.7 973.04 820.48 614.06 740.28 872.16 996.8 1123.9 1168.16 1071.96 1089.12 1282.14 1357.58 1375.06 1366.86 1542.74 1590.86 1521.5 1476.32 1401.5 1379.06 1221.52 1141.44 1054.02 900.88 763.04 876.2 953.9 1012.7 1135.54 1264.34 1395.24 1268.22 1199.9 1159.04 1067.96 878.18 714.56 623.78 748.64 891.04 1030.86 1145.96 1154.04 1027.14 870.52 773.22 711.58 726.16 657.66 602.27 602.27 631.57 631.57 631.58 631.59 631.59 631.99 634.78 637.92 642.88 714.82 714.3 774.7 857.84 913.1 955.22 974.78 979.6 1069.8 1122.32 1207.36 1270.32 1319.74 1375.24 -999.9000 -999.9000 -999.9000 -999.9000 -999.9000 -999.9000 -999.9000 -999.9000 -999.9000
-999.9000 -999.9000 -999.9000 -999.9000 -999.9000 -999.9000 -999.9000 -999.9000 -999.9000 -999.9000 -999.9000 -999.9000 -999.9000 -999.9000 -999.9000 -999.9000 -999.9000 -999.9000 -999.9000 -999.9000 -999.9000 -999.9000 -999.9000 -999.9000 -999.9000 -999.9000 -999.9000 -999.9000 -999.9000 -999.9000 -999.9000 -999.9000 -999.9000 -999.9000 -999.9000 -999.9000 -999.9000 -999.9000 -999.9000 -999.9000 -999.9000 -999.9000 -999.9000 -999.9000 -999.9000 -999.9000 -999.9000 -999.9000 -999.9000 -999.9000 -999.9000 -999.9000 -999.9000 -999.9000 1908.58 1903.94 1898.02 1787.48 1635.04 1477.24 1361.14 1332.88 1204.44 1134.52 1115.14 1110.74 1088.98 975.66 839.36 820.7 844.96 994.48 1158.66 1244.7 1184.26 1144.58 1073.98 878.0 713.1 596.5 788.18 960.76 1102.3 1107.54 1021.64 924.76 1064.2 1153.62 1154.38 1214.46 1354.66 1581.08 1715.94 1724.6 1651.1 1550.64 1409.2 1353.12 1265.96 1135.68 956.98 773.72 740.86 874.34 999.78 1102.02 1211.56 1308.74 1179.22 1040.28 1007.32 978.78 901.6 728.28 610.99 674.32 806.68 958.56 1102.02 1087.32 947.24 871.74 694.96 584.17 602.26 602.27 706.46 602.28 630.94 689.84 633.57 633.59 641.98 712.44 679.76 651.3 767.24 813.98 794.66 819.82 851.78 904.84 979.44 1036.38 1059.18 1096.12 1200.0 1254.14 1301.74 1345.64 -999.9000 -999.9000 -999.9000 -999.9000 -999.9000 -999.9000 -999.9000 -999.9000 -999.9000 -999.9000
-999.9000 -999.9000 -999.9000 -999.9000 -999.9000 -999.9000 -999.9000 -999.9000 -999.9000 -999.9000 -999.9000 -999.9000 -999.9000 -999.9000 -999.9000 -999.9000 -999.9000 -999.9000 -999.9000 -999.9000 -999.9000 -999.9000 -999.9000 -999.9000 -999.9000 -999.9000 -999.9000 -999.9000 -999.9000 -999.9000 -999.9000 -999.9000 -999.9000 -999.9000 -999.9000 -999.9000 -999.9000 -999.9000 -999.9000 -999.9000 -999.9000 -999.9000 -999.9000 -999.9000 -999.9000 -999.9000 -999.9000 -999.9000 -999.9000 -999.9000 -999.9000 -999.9000 -999.9000 1889.04 1781.14 1727.76 1772.42 1708.26 1589.36 1430.42 1260.6 1155.98 1128.74 993.62 934.26 910.48 910.46 851.04 884.74 981.12 1028.84 1072.26 1187.82 1307.14 1247.56 1142.2 1008.72 808.12 652.78 596.5 837.56 990.02 1075.14 945.82 842.74 886.7 980.6 1057.0 1182.92 1329.04 1476.5 1604.96 1753.14 1756.8 1605.16 1473.66 1406.18 1264.52 1132.54 1079.14 989.16 856.56 710.98 851.86 957.06 1024.84 1148.62 1299.32 1183.02 1018.02 867.1 771.96 764.36 665.06 610.98 610.99 777.86 929.38 1047.02 982.36 890.28 749.34 714.38 584.17 601.72 628.02 768.1 746.52 778.5 844.6 761.06 738.62 701.42 757.46 734.54 651.3 734.02 807.96 885.12 913.24 948.18 970.46 1014.94 1064.68 1107.96 1128.94 1184.5 1255.65 -999.9000 -999.9000 -999.9000 -999.9000 -999.9000 -999.9000 -999.9000 -999.9000 -999.9000 -999.9000 -999.9000 -999.9000
-999.9000 -999.9000 -999.9000 -999.9000 -999.9000 -999.9000 -999.9000 -999.9000 -999.9000 -999.9000 -999.9000 -999.9000 -999.9000 -999.9000 -999.9000 -999.9000 -999.9000 -999.9000 -999.9000 -999.9000 -999.9000 -999.9000 -999.9000 -999.9000 -999.9000 -999.9000 -999.9000 -999.9000 -999.9000 -999.9000 -999.9000 -999.9000 -999.9000 -999.9000 -999.9000 -999.9000 -999.9000 -999.9000 -999.9000 -999.9000 -999.9000 -999.9000 -999.9000 -999.9000 -999.9000 -999.9000 -999.9000 -999.9000 -999.9000 -999.9000 -999.9000 -999.9000 1829.5 1740.76 1670.9 1602.82 1604.54 1636.42 1507.32 1400.18 1319.08 1120.12 1004.48 992.02 1020.6 927.34 971.74 982.52 1065.34 1081.52 1188.34 1175.78 1303.8 1314.14 1155.1 1007.94 905.72 817.78 596.5 676.12 849.26 983.66 942.06 802.22 844.26 1017.5 1137.18 1213.76 1313.78 1408.4 1462.62 1562.62 1644.24 1680.18 1545.02 1367.9 1272.88 1194.18 1023.78 886.3 837.04 758.28 694.74 786.14 900.36 1002.1 1127.18 1243.56 1177.28 1057.8 934.04 779.38 602.1 578.06 651.36 678.04 784.12 928.86 1025.78 862.24 746.28 555.96 555.96 613.28 584.16 709.82 860.54 908.0 931.72 999.64 912.76 856.3 771.54 768.26 790.28 690.22 711.72 785.66 860.24 941.86 998.32 1023.02 1056.24 1093.04 1129.92 -999.9000 -999.9000 -999.9000 -999.9000 -999.9000 -999.9000 -999.9000 -999.9000 -999.9000 -999.9000 -999.9000 -999.9000 -999.9000 -999.9000 -999.9000
-999.9000 -999.9000 -999.9000 -999.9000 -999.9000 -999.9000 -999.9000 -999.9000 -999.9000 -999.9000 -999.9000 -999.9000 -999.9000 -999.9000 -999.9000 -999.9000 -999.9000 -999.9000 -999.9000 -999.9000 -999.9000 -999.9000 -999.9000 -999.9000 -999.9000 -999.9000 -999.9000 -999.9000 -999.9000 -999.9000 -999.9000 -999.9000 -999.9000 -999.9000 -999.9000 -999.9000 -999.9000 -999.9000 -999.9000 -999.9000 -999.9000 -999.9000 -999.9000 -999.9000 -999.9000 -999.9000 -999.9000 -999.9000 -999.9000 -999.9000 -999.9000 1891.35 1787.32 1665.58 1567.18 1497.36 1462.9 1525.9 1405.6 1311.1 1193.06 1055.08 1093.54 1159.18 1179.38 1063.14 1070.62 1169.3 1234.9 1203.44 1249.78 1336.04 1332.24 1224.92 1068.06 920.7 774.34 732.86 706.36 583.72 818.94 866.14 765.66 698.02 903.78 1043.54 1049.66 1092.06 1178.68 1205.48 1258.08 1387.26 1492.14 1478.96 1445.94 1300.84 1145.2 1053.48 965.1 908.82 782.12 710.92 694.74 854.94 1042.52 1159.64 1217.58 1100.1 997.74 981.08 875.36 715.32 563.42 603.98 766.96 857.62 884.48 965.76 923.84 830.76 756.6 628.78 555.96 555.96 555.96 659.8 796.02 961.1 1088.6 1140.92 1053.66 927.84 790.7 832.26 835.82 713.06 761.06 817.02 851.9 926.56 1007.52 1079.28 1109.8 1139.44 -999.9000 -999.9000 -999.9000 -999.9000 -999.9000 -999.9000 -999.9000 -999.9000 -999.9000 -999.9000 -999.9000 -999.9000 -999.9000 -999.9000 -999.9000 -999.9000
-999.9000 -999.9000 -999.9000 -999.9000 -999.9000 -999.9000 -999.9000 -999.9000 -999.9000 -999.9000 -999.9000 -999.9000 -999.9000 -999.9000 -999.9000 -999.9000 -999.9000 -999.9000 -999.9000 -999.9000 -999.9000 -999.9000 -999.9000 -999.9000 -999.9000 -999.9000 -999.9000 -999.9000 -999.9000 -999.9000 -999.9000 -999.9000 -999.9000 -999.9000 -999.9000 -999.9000 -999.9000 -999.9000 -999.9000 -999.9000 -999.9000 -999.9000 -999.9000 -999.9000 -999.9000 -999.9000 -999.9000 -999.9000 -999.9000 -999.9000 -999.9000 1941.5 1863.84 1812.82 1683.1 1542.88 1408.76 1437.58 1327.98 1168.18 1080.64 1129.0 1197.86 1322.22 1323.52 1241.34 1242.64 1264.12 1353.3 1329.58 1394.86 1438.8 1299.6 1161.06 1055.86 910.76 902.58 894.66 769.7 577.83 650.44 661.26 599.94 753.44 874.18 864.96 869.78 918.2 998.04 1118.96 1281.74 1375.36 1319.54 1248.94 1291.4 1355.6 1226.48 1148.92 1139.62 1037.02 883.78 694.74 719.64 870.44 1039.36 1235.52 1188.78 1037.78 866.52 802.88 862.9 685.0 546.68 558.32 702.1 688.56 696.56 797.8 783.02 639.7 612.52 555.96 555.96 655.72 641.42 670.32 745.06 871.52 1008.46 1145.7 1079.44 956.74 839.42 908.7 856.7 736.28 805.78 850.58 911.82 985.72 1034.26 1098.42 1152.2 -999.9000 -999.9000 -999.9000 -999.9000 -999.9000 -999.9000 -999.9000 -999.9000 -999.9000 -999.9000 -999.9000 -999.9000 -999.9000 -999.9000 -999.9000 -999.9000 -999.9000
-999.9000 -999.9000 -999.9000 -999.9000 -999.9000 -999.9000 -999.9000 -999.9000 -999.9000 -999.9000 -999.9000 -999.9000 -999.9000 -999.9000 -999.9000 -999.9000 -999.9000 -999.9000 -999.9000 -999.9000 -999.9000 -999.9000 -999.9000 -999.9000 -999.9000 -999.9000 -999.9000 -999.9000 -999.9000 -999.9000 -999.9000 -999.9000 -999.9000 -999.9000 -999.9000 -999.9000 -999.9000 -999.9000 -999.9000 -999.9000 -999.9000 -999.9000 -999.9000 -999.9000 -999.9000 -999.9000 -999.9000 -999.9000 -999.9000 -999.9000 -999.9000 -999.9000 1994.42 1861.58 1739.18 1564.96 1411.68 1340.34 1248.98 1118.46 1230.88 1303.5 1370.02 1431.64 1512.44 1462.6 1388.88 1397.28 1401.66 1497.7 1541.22 1453.18 1335.54 1211.2 1102.54 1039.94 1096.22 984.46 781.08 600.76 577.81 569.84 564.18 714.4 728.9 745.18 880.3 998.38 1116.8 1234.62 1339.9 1237.78 1113.24 1088.24 1190.48 1307.72 1352.56 1346.86 1259.84 1106.58 907.78 686.4 686.68 848.88 1051.76 1223.74 1099.48 922.94 797.72 655.32 685.9 699.44 548.88 513.5 599.48 513.12 559.88 708.14 724.42 549.62 555.96 597.58 604.68 626.08 765.2 834.26 851.24 912.68 1036.32 1187.3 1159.0 989.52 952.52 973.14 885.02 771.82 832.52 889.66 965.18 1037.64 1086.02 1138.74 -999.9000 -999.9000 -999.9000 -999.9000 -999.9000 -999.9000 -999.9000 -999.9000 -999.9000 -999.9000 -999.9000 -999.9000 -999.9000 -999.9000 -999.9000 -999.9000 -999.9000 -999.9000
-999.9000 -999.9000 -999.9000 -999.9000 -999.9000 -999.9000 -999.9000 -999.9000 -999.9000 -999.9000 -999.9000 -999.9000 -999.9000 -999.9000 -999.9000 -999.9000 -999.9000 -999.9000 -999.9000 -999.9000 -999.9000 -999.9000 -999.9000 -999.9000 -999.9000 -999.9000 -999.9000 -999.9000 -999.9000 -999.9000 -999.9000 -999.9000 -999.9000 -999.9000 -999.9000 -999.9000 -999.9000 -999.9000 -999.9000 -999.9000 -999.9000 -999.9000 -999.9000 -999.9000 -999.9000 -999.9000 -999.9000 -999.9000 -999.9000 1855.98 1821.58 1836.4 1888.88 1829.86 1661.02 1528.6 1404.94 1292.02 1175.7 1166.66 1253.92 1351.74 1502.96 1613.06 1674.56 1576.04 1561.66 1539.4 1521.0 1611.04 1547.32 1374.96 1291.32 1241.8 1228.98 1234.78 1159.3 991.54 797.46 740.88 789.6 761.06 551.96 579.4 625.08 790.88 974.86 1103.58 1175.58 1222.64 1228.14 1093.74 960.56 1012.04 1095.14 1257.62 1304.5 1247.7 1219.8 1096.46 909.88 716.24 644.3 817.16 975.98 1134.94 1039.46 843.68 683.38 559.88 537.22 527.72 504.94 513.11 513.12 513.13 584.98 616.28 586.9 530.72 530.73 623.54 643.86 616.42 680.16 797.08 949.22 1011.06 1086.42 1215.84 1217.78 1068.52 1063.18 1054.48 947.66 853.54 826.3 913.04 1004.84 1058.48 1120.74 -999.9000 -999.9000 -999.9000 -999.9000 -999.9000 -999.9000 -999.9000 -999.9000 -999.9000 -999.9000 -999.9000 -999.9000 -999.9000 -999.9000 -999.9000 -999.9000 -999.9000 -999.9000 -999.9000
-999.9000 -999.9000 -999.9000 -999.9000 -999.9000 -999.9000 -999.9000 -999.9000 -999.9000 -999.9000 -999.9000 -999.9000 -999.9000 -999.9000 -999.9000 -999.9000 -999.9000 -999.9000 -999.9000 -999.9000 -999.9000 -999.9000 -999.9000 -999.9000 -999.9000 -999.9000 -999.9000 -999.9000 -999.9000 -999.9000 -999.9000 -999.9000 -999.9000 -999.9000 -999.9000 -999.9000 -999.9000 -999.9000 -999.9000 -999.9000 -999.9000 -999.9000 -999.9000 -999.9000 -999.9000 -999.9000 -999.9000 -999.9000 1762.38 1694.7 1648.84 1684.4 1708.04 1773.2 1656.88 1509.8 1371.74 1312.9 1357.04 1340.1 1396.22 1398.1 1478.28 1637.14 1757.78 1762.48 1728.22 1681.1 1700.12 1691.82 1602.64 1510.6 1382.14 1400.24 1386.52 1276.52 1098.28 963.26 938.22 952.04 919.34 754.68 568.4 520.4 606.1 728.68 835.94 911.14 1012.44 988.3 1054.12 1008.86 836.08 900.72 1056.52 1175.04 1124.1 1059.94 1028.04 1034.62 874.3 661.84 623.36 809.48 936.12 1043.98 1048.66 845.34 693.58 597.58 548.8 530.34 504.94 636.1 657.62 578.74 513.13 571.08 530.71 521.77 554.4 669.64 777.78 702.24 648.32 746.26 789.56 881.76 1015.26 1032.04 1156.54 1211.84 1165.74 1089.16 1018.08 881.57 881.59 948.18 1028.3 1085.56 1131.0 -999.9000 -999.9000 -999.9000 -999.9000 -999.9000 -999.9000 -999.9000 -999.9000 -999.9000 -999.9000 -999.9000 -999.9000 -999.9000 -999.9000 -999.9000 -999.9000 -999.9000 -999.9000 -999.9000
-999.9000 -999.9000 -999.9000 -999.9000 -999.9000 -999.9000 -999.9000 -999.9000 -999.9000 -999.9000 -999.9000 -999.9000 -999.9000 -999.9000 -999.9000 -999.9000 -999.9000 -999.9000 -999.9000 -999.9000 -999.9000 -999.9000 -999.9000 -999.9000 -999.9000 -999.9000 -999.9000 -999.9000 -999.9000 -999.9000 -999.9000 -999.9000 -999.9000 -999.9000 -999.9000 -999.9000 -999.9000 -999.9000 -999.9000 -999.9000 -999.9000 -999.9000 -999.9000 -999.9000 -999.9000 -999.9000 -999.9000 1928.24 1785.64 1634.52 1502.78 1520.5 1672.06 1773.22 1638.58 1490.8 1408.84 1460.56 1504.8 1496.92 1525.02 1608.94 1644.4 1666.38 1682.46 1657.62 1740.9 1861.26 1883.72 1799.34 1687.26 1537.04 1489.0 1547.82 1429.5 1263.9 1165.32 1145.06 1135.24 1119.08 929.78 788.52 683.68 671.22 517.02 629.54 797.64 853.22 832.04 790.3 845.72 907.68 772.22 815.98 952.24 1055.72 957.18 866.16 887.34 966.76 793.78 651.42 622.08 754.72 878.56 1007.76 1066.5 925.52 793.7 703.1 601.32 490.72 556.7 594.78 722.32 732.62 619.44 513.13 521.75 540.58 598.32 709.06 861.62 816.58 681.28 649.1 737.16 830.48 879.92 1011.82 1104.76 1203.62 1249.56 1152.18 1010.84 955.04 925.72 999.7 1064.38 1114.22 -999.9000 -999.9000 -999.9000 -999.9000 -999.9000 -999.9000 -999.9000 -999.9000 -999.9000 -999.9000 -999.9000 -999.9000 -999.9000 -999.9000 -999.9000 -999.9000 -999.9000 -999.9000 -999.9000 -999.9000
-999.9000 -999.9000 -999.9000 -999.9000 -999.9000 -999.9000 -999.9000 -999.9000 -999.9000 -999.9000 -999.9000 -999.9000 -999.9000 -999.9000 -999.9000 -999.9000 -999.9000 -999.9000 -999.9000 -999.9000 -999.9000 -999.9000 -999.9000 -999.9000 -999.9000 -999.9000 -999.9000 -999.9000 -999.9000 -999.9000 -999.9000 -999.9000 -999.9000 -999.9000 -999.9000 -999.9000 -999.9000 -999.9000 -999.9000 -999.9000 -999.9000 -999.9000 -999.9000 -999.9000 -999.9000 -999.9000 1922.98 1835.84 1793.82 1679.0 1502.92 1433.34 1568.2 1682.9 1706.6 1584.38 1579.2 1616.5 1643.44 1674.64 1669.72 1651.04 1606.88 1534.94 1524.22 1641.44 1771.16 1814.32 1847.34 1784.32 1684.3 1631.86 1621.84 1592.34 1444.62 1326.76 1296.96 1285.16 1209.34 1081.28 995.08 880.92 824.16 697.6 517.02 691.54 710.48 595.74 599.46 610.3 661.86 727.98 628.34 749.56 864.88 942.66 805.44 702.78 709.42 814.54 708.5 569.28 634.64 768.72 876.68 1017.02 1057.26 890.16 760.56 639.54 531.86 472.79 472.78 564.14 684.7 700.12 695.32 593.36 585.4 568.42 681.16 797.18 898.44 938.04 805.74 723.48 683.04 799.06 900.62 962.0 1026.54 1084.04 1201.76 1205.1 1109.24 1053.22 950.16 1070.2 1108.68 1166.04 -999.9000 -999.9000 -999.9000 -999.9000 -999.9000 -999.9000 -999.9000 -999.9000 -999.9000 -999.9000 -999.9000 -999.9000 -999.9000 -999.9000 -999.9000 -999.9000 -999.9000 -999.9000 -999.9000 -999.9000
-999.9000 -999.9000 -999.9000 -999.9000 -999.9000 -999.9000 -999.9000 -999.9000 -999.9000 -999.9000 -999.9000 -999.9000 -999.9000 -999.9000 -999.9000 -999.9000 -999.9000 -999.9000 -999.9000 -999.9000 -999.9000 -999.9000 -999.9000 -999.9000 -999.9000 -999.9000 -999.9000 -999.9000 -999.9000 -999.9000 -999.9000 -999.9000 -999.9000 -999.9000 -999.9000 -999.9000 -999.9000 -999.9000 -999.9000 -999.9000 -999.9000 -999.9000 -999.9000 -999.9000 -999.9000 -999.9000 1813.72 1656.22 1627.54 1602.28 1520.26 1365.44 1480.08 1559.76 1697.24 1752.0 1759.18 1750.52 1744.98 1711.84 1607.7 1489.32 1444.1 1408.42 1516.96 1595.0 1667.98 1624.5 1725.3 1718.8 1566.52 1460.86 1431.82 1456.9 1362.44 1189.56 1114.18 1109.78 1088.3 928.32 852.24 849.74 815.92 657.82 516.87 600.8 516.85 483.0 480.46 484.64 465.23 536.08 525.98 602.06 809.56 835.72 731.16 557.88 529.62 616.42 632.02 552.86 650.16 754.18 883.8 1032.02 1029.86 963.0 896.78 733.26 640.8 559.54 570.26 472.78 506.46 513.98 592.4 725.88 784.74 727.66 714.9 761.76 838.24 987.78 948.3 810.96 683.04 716.46 794.76 915.08 1000.74 1070.98 1150.94 1258.64 1235.3 1161.76 1108.6 1139.1 1187.06 -999.9000 -999.9000 -999.9000 -999.9000 -999.9000 -999.9000 -999.9000 -999.9000 -999.9000 -999.9000 -999.9000 -999.9000 -999.9000 -999.9000 -999.9000 -999.9000 -999.9000 -999.9000 -999.9000 -999.9000 -999.9000
-999.9000 -999.9000 -999.9000 -999.9000 -999.9000 -999.9000 -999.9000 -999.9000 -999.9000 -999.9000 -999.9000 -999.9000 -999.9000 -999.9000 -999.9000 -999.9000 -999.9000 -999.9000 -999.9000 -999.9000 -999.9000 -999.9000 -999.9000 -999.9000 -999.9000 -999.9000 -999.9000 -999.9000 -999.9000 -999.9000 -999.9000 -999.9000 -999.9000 -999.9000 -999.9000 -999.9000 -999.9000 -999.9000 -999.9000 -999.9000 -999.9000 -999.9000 -999.9000 -999.9000 -999.9000 1893.44 1790.8 1620.16 1493.02 1406.56 1365.22 1300.76 1382.08 1554.32 1625.14 1684.02 1718.2 1606.4 1591.2 1577.32 1538.06 1388.8 1317.24 1377.68 1383.44 1465.76 1498.92 1498.38 1594.54 1682.88 1538.68 1367.52 1226.94 1257.04 1300.92 1168.36 974.34 909.56 963.26 909.58 763.98 669.82 680.7 689.46 541.76 516.86 600.62 659.06 490.82 465.24 489.16 465.23 443.39 577.16 640.3 608.9 612.48 511.66 601.42 552.86 552.86 624.12 683.74 797.4 890.78 1002.64 1145.44 1071.34 921.52 900.12 809.78 739.5 745.44 612.66 472.77 491.32 558.44 663.06 807.9 897.64 913.88 900.84 873.28 970.68 988.02 857.44 783.0 727.2 751.94 837.86 891.56 994.7 1085.84 1236.22 1270.88 1277.44 1238.64 1220.26 1262.075 -999.9000 -999.9000 -999.9000 -999.9000 -999.9000 -999.9000 -999.9000 -999.9000 -999.9000 -999.9000 -999.9000 -999.9000 -999.9000 -999.9000 -999.9000 -999.9000 -999.9000 -999.9000 -999.9000 -999.9000 -999.9000
-999.9000 -999.9000 -999.9000 -999.9000 -999.9000 -999.9000 -999.9000 -999.9000 -999.9000 -999.9000 -999.9000 -999.9000 -999.9000 -999.9000 -999.9000 -999.9000 -999.9000 -999.9000 -999.9000 -999.9000 -999.9000 -999.9000 -999.9000 -999.9000 -999.9000 -999.9000 -999.9000 -999.9000 -999.9000 -999.9000 -999.9000 -999.9000 -999.9000 -999.9000 -999.9000 -999.9000 -999.9000 -999.9000 -999.9000 -999.9000 -999.9000 -999.9000 -999.9000 -999.9000 1854.8 1806.14 1708.36 1680.02 1572.68 1427.94 1288.64 1266.7 1410.16 1458.46 1471.34 1604.94 1657.74 1493.4 1417.14 1398.32 1482.94 1430.72 1282.74 1207.0 1228.22 1271.56 1335.06 1435.92 1560.3 1666.24 1522.6 1307.54 1169.26 1078.86 1089.62 1171.62 1021.44 855.0 772.26 803.44 695.54 553.3 553.28 544.84 598.28 721.1 740.16 628.36 544.6 552.46 520.74 552.28 443.39 573.84 474.11 474.13 525.58 506.06 636.78 766.12 756.04 780.48 799.2 840.54 936.9 1081.88 1228.96 1193.94 1113.98 1063.04 955.16 873.44 787.64 611.8 506.58 462.34 570.94 681.14 738.56 854.76 1006.14 1018.46 992.5 989.5 1059.98 988.38 934.68 857.72 748.64 808.14 907.18 1007.14 1110.6 1193.56 1274.14 1316.26 -999.9000 -999.9000 -999.9000 -999.9000 -999.9000 -999.9000 -999.9000 -999.9000 -999.9000 -999.9000 -999.9000 -999.9000 -999.9000 -999.9000 -999.9000 -999.9000 -999.9000 -999.9000 -999.9000 -999.9000 -999.9000 -999.9000 -999.9000 -999.9000
-999.9000 -999.9000 -999.9000 -999.9000 -999.9000 -999.9000 -999.9000 -999.9000 -999.9000 -999.9000 -999.9000 -999.9000 -999.9000 -999.9000 -999.9000 -999.9000 -999.9000 -999.9000 -999.9000 -999.9000 -999.9000 -999.9000 -999.9000 -999.9000 -999.9000 -999.9000 -999.9000 -999.9000 -999.9000 -999.9000 -999.9000 -999.9000 -999.9000 -999.9000 -999.9000 -999.9000 -999.9000 -999.9000 -999.9000 -999.9000 -999.9000 -999.9000 -999.9000 1813.8 1723.9 1716.3 1604.76 1551.22 1536.9 1360.48 1221.04 1311.46 1367.82 1330.54 1451.74 1602.94 1607.38 1453.5 1348.7 1273.6 1292.16 1358.18 1280.2 1139.22 1176.58 1296.92 1380.4 1491.98 1549.08 1532.58 1522.4 1347.44 1178.62 1032.7 926.56 1001.08 1040.18 933.82 779.92 645.92 568.26 611.84 747.08 761.36 824.74 841.98 686.22 544.84 592.12 607.96 522.0 561.56 443.39 443.38 453.5 581.7 506.06 541.1 669.02 789.12 820.36 917.42 924.44 941.66 1031.52 1099.94 1172.06 1142.34 1165.52 1064.9 904.54 780.64 723.26 668.72 536.04 470.42 462.34 656.82 793.94 905.16 1053.46 1136.32 1135.84 1073.42 1133.88 1112.28 1073.52 933.86 837.4 784.64 918.18 996.34 1097.52 1158.02 1224.88 1299.2 -999.9000 -999.9000 -999.9000 -999.9000 -999.9000 -999.9000 -999.9000 -999.9000 -999.9000 -999.9000 -999.9000 -999.9000 -999.9000 -999.9000 -999.9000 -999.9000 -999.9000 -999.9000 -999.9000 -999.9000 -999.9000 -999.9000 -999.9000 -999.9000
-999.9000 -999.9000 -999.9000 -999.9000 -999.9000 -999.9000 -999.9000 -999.9000 -999.9000 -999.9000 -999.9000 -999.9000 -999.9000 -999.9000 -999.9000 -999.9000 -999.9000 -999.9000 -999.9000 -999.9000 -999.9000 -999.9000 -999.9000 -999.9000 -999.9000 -999.9000 -999.9000 -999.9000 -999.9000 -999.9000 -999.9000 -999.9000 -999.9000 -999.9000 -999.9000 -999.9000 -999.9000 -999.9000 -999.9000 -999.9000 -999.9000 -999.9000 -999.9000 1732.28 1618.74 1607.26 1534.56 1405.92 1434.9 1343.36 1190.78 1187.38 1230.54 1334.18 1463.86 1616.86 1640.3 1578.78 1486.92 1360.96 1229.72 1182.84 1120.46 1089.36 1154.14 1201.74 1305.76 1400.82 1347.7 1322.36 1356.52 1334.68 1179.9 1029.86 865.74 834.82 904.02 855.9 765.26 586.5 654.36 707.82 874.9 995.5 979.2 837.44 705.28 641.76 586.54 531.55 531.53 578.3 608.16 443.38 443.37 584.22 700.02 643.12 570.24 598.68 726.46 786.62 724.04 800.7 937.0 975.98 1027.78 953.68 1000.18 997.6 893.88 771.5 661.62 590.76 457.8 457.8 500.3 638.52 800.56 966.86 1064.08 1077.54 1120.38 1187.74 1243.12 1264.3 1129.38 980.06 840.24 840.24 899.18 944.28 1012.26 1128.14 1206.64 1264.175 -999.9000 -999.9000 -999.9000 -999.9000 -999.9000 -999.9000 -999.9000 -999.9000 -999.9000 -999.9000 -999.9000 -999.9000 -999.9000 -999.9000 -999.9000 -999.9000 -999.9000 -999.9000 -999.9000 -999.9000 -999.9000 -999.9000 -999.9000 -999.9000
-999.9000 -999.9000 -999.9000 -999.9000 -999.9000 -999.9000 -999.9000 -999.9000 -999.9000 -999.9000 -999.9000 -999.9000 -999.9000 -999.9000 -999.9000 -999.9000 -999.9000 -999.9000 -999.9000 -999.9000 -999.9000 -999.9000 -999.9000 -999.9000 -999.9000 -999.9000 -999.9000 -999.9000 -999.9000 -999.9000 -999.9000 -999.9000 -999.9000 -999.9000 -999.9000 -999.9000 -999.9000 -999.9000 -999.9000 -999.9000 -999.9000 -999.9000 1812.4 1728.02 1635.62 1487.54 1454.54 1329.84 1303.22 1274.08 1139.66 1208.56 1329.04 1394.6 1499.0 1632.12 1646.42 1513.96 1380.68 1286.94 1195.2 1129.16 1043.36 1016.56 981.12 1071.66 1181.96 1232.22 1159.08 1140.16 1238.4 1342.82 1196.72 1014.76 889.54 755.02 705.34 671.34 655.92 587.4 659.7 818.74 961.56 1101.9 983.0 840.98 830.74 798.78 674.8 608.38 644.78 701.9 593.14 482.46 441.3 602.18 650.36 490.44 408.06 499.08 622.5 618.98 583.66 670.52 770.54 808.12 898.14 800.66 841.9 844.28 768.16 655.1 575.08 492.36 457.8 554.32 619.4 717.94 858.18 959.82 974.96 918.16 969.7 1075.32 1150.56 1251.4 1149.84 1052.58 1009.38 846.56 971.38 1062.92 1103.42 1147.74 1217.06 -999.9000 -999.9000 -999.9000 -999.9000 -999.9000 -999.9000 -999.9000 -999.9000 -999.9000 -999.9000 -999.9000 -999.9000 -999.9000 -999.9000 -999.9000 -999.9000 -999.9000 -999.9000 -999.9000 -999.9000 -999.9000 -999.9000 -999.9000 -999.9000 -999.9000
-999.9000 -999.9000 -999.9000 -999.9000 -999.9000 -999.9000 -999.9000 -999.9000 -999.9000 -999.9000 -999.9000 -999.9000 -999.9000 -999.9000 -999.9000 -999.9000 -999.9000 -999.9000 -999.9000 -999.9000 -999.9000 -999.9000 -999.9000 -999.9000 -999.9000 -999.9000 -999.9000 -999.9000 -999.9000 -999.9000 -999.9000 -999.9000 -999.9000 -999.9000 -999.9000 -999.9000 -999.9000 -999.9000 -999.9000 -999.9000 -999.9000 -999.9000 1811.48 1679.44 1535.74 1392.82 1334.68 1194.96 1164.36 1113.92 1134.08 1246.34 1358.26 1504.78 1583.14 1542.48 1557.58 1560.54 1440.18 1318.1 1279.92 1284.18 1178.42 1070.74 900.16 967.7 1099.1 1080.86 990.48 1070.8 1165.68 1151.62 1210.96 1113.8 962.98 813.36 672.18 624.5 624.5 657.96 769.66 786.4 958.2 1125.64 1015.52 944.56 996.1 900.6 839.76 792.3 809.8 683.64 523.62 447.72 428.52 589.08 612.1 408.06 451.42 418.45 466.64 418.46 451.14 557.72 623.0 691.96 772.76 672.24 682.92 688.78 620.96 524.66 441.03 441.03 457.8 601.58 695.12 805.46 898.44 841.92 789.38 801.78 857.38 942.36 1100.2 1241.5 1294.0 1205.82 1108.24 988.46 987.2 1090.7 1138.42 1180.04 -999.9000 -999.9000 -999.9000 -999.9000 -999.9000 -999.9000 -999.9000 -999.9000 -999.9000 -999.9000 -999.9000 -999.9000 -999.9000 -999.9000 -999.9000 -999.9000 -999.9000 -999.9000 -999.9000 -999.9000 -999.9000 -999.9000 -999.9000 -999.9000 -999.9000 -999.9000
-999.9000 -999.9000 -999.9000 -999.9000 -999.9000 -999.9000 -999.9000 -999.9000 -999.9000 -999.9000 -999.9000 -999.9000 -999.9000 -999.9000 -999.9000 -999.9000 -999.9000 -999.9000 -999.9000 -999.9000 -999.9000 -999.9000 -999.9000 -999.9000 -999.9000 -999.9000 -999.9000 -999.9000 -999.9000 -999.9000 -999.9000 -999.9000 -999.9000 -999.9000 -999.9000 -999.9000 -999.9000 -999.9000 -999.9000 -999.9000 -999.9000 1728.98 1740.22 1621.28 1463.5 1309.38 1222.04 1183.86 1085.78 1083.44 1191.02 1333.7 1453.86 1475.22 1435.86 1355.64 1391.68 1525.12 1526.82 1464.34 1450.74 1378.06 1204.94 1034.24 892.56 856.46 927.9 932.3 871.58 940.6 947.64 1040.48 1124.5 1065.4 981.16 850.16 711.88 664.22 820.12 857.3 931.8 887.06 951.36 1099.94 1152.92 1122.04 1141.22 1070.38 969.6 827.12 711.22 608.26 543.28 511.02 428.06 579.88 543.42 408.04 463.82 506.26 418.46 457.08 418.47 418.47 469.96 549.62 575.84 546.78 578.52 601.64 528.12 441.03 463.28 441.03 478.3 441.04 585.52 745.5 751.66 706.66 801.46 909.5 963.42 999.3 1023.64 1158.02 1301.62 1321.38 1200.98 1121.72 1060.62 1135.0 1175.14 1208.58 -999.9000 -999.9000 -999.9000 -999.9000 -999.9000 -999.9000 -999.9000 -999.9000 -999.9000 -999.9000 -999.9000 -999.9000 -999.9000 -999.9000 -999.9000 -999.9000 -999.9000 -999.9000 -999.9000 -999.9000 -999.9000 -999.9000 -999.9000 -999.9000 -999.9000 -999.9000
-999.9000 -999.9000 -999.9000 -999.9000 -999.9000 -999.9000 -999.9000 -999.9000 -999.9000 -999.9000 -999.9000 -999.9000 -999.9000 -999.9000 -999.9000 -999.9000 -999.9000 -999.9000 -999.9000 -999.9000 -999.9000 -999.9000 -999.9000 -999.9000 -999.9000 -999.9000 -999.9000 -999.9000 -999.9000 -999.9000 -999.9000 -999.9000 -999.9000 -999.9000 -999.9000 -999.9000 -999.9000 -999.9000 -999.9000 -999.9000 1700.6 1581.28 1600.08 1615.18 1492.08 1370.58 1314.82 1250.92 1101.2 1072.1 1190.82 1329.12 1375.78 1339.96 1253.66 1202.48 1300.42 1457.3 1542.86 1496.34 1427.44 1332.32 1181.32 1026.78 880.24 781.38 852.06 748.54 747.76 783.86 912.4 930.02 982.66 896.16 829.42 689.95 664.22 729.06 876.04 1036.64 1121.78 1012.6 1008.58 1153.04 1257.28 1165.6 1065.52 1007.68 895.8 761.38 592.32 418.72 418.72 428.06 508.5 608.42 511.62 407.25 407.23 551.6 581.82 589.14 615.24 519.54 418.47 419.56 430.4 425.62 533.48 618.8 498.32 441.02 561.0 560.44 441.04 469.66 561.44 612.1 662.12 734.08 819.04 920.7 1012.8 1112.52 1123.54 1114.22 1233.26 1365.52 1325.82 1241.68 1176.66 1208.86 1245.04 -999.9000 -999.9000 -999.9000 -999.9000 -999.9000 -999.9000 -999.9000 -999.9000 -999.9000 -999.9000 -999.9000 -999.9000 -999.9000 -999.9000 -999.9000 -999.9000 -999.9000 -999.9000 -999.9000 -999.9000 -999.9000 -999.9000 -999.9000 -999.9000 -999.9000 -999.9000 -999.9000
-999.9000 -999.9000 -999.9000 -999.9000 -999.9000 -999.9000 -999.9000 -999.9000 -999.9000 -999.9000 -999.9000 -999.9000 -999.9000 -999.9000 -999.9000 -999.9000 -999.9000 -999.9000 -999.9000 -999.9000 -999.9000 -999.9000 -999.9000 -999.9000 -999.9000 -999.9000 -999.9000 -999.9000 -999.9000 -999.9000 -999.9000 -999.9000 -999.9000 -999.9000 -999.9000 -999.9000 -999.9000 -999.9000 -999.9000 -999.9000 1673.42 1526.84 1454.24 1486.02 1438.58 1288.6 1239.5 1203.84 1030.6 1027.76 1151.04 1163.22 1194.04 1176.66 1081.64 1179.84 1330.08 1341.82 1429.88 1400.5 1282.06 1174.14 1104.36 1054.82 939.24 781.38 748.54 785.72 805.02 743.14 737.3 737.29 862.16 829.9 689.97 722.44 826.16 905.82 957.98 1102.96 1208.7 1103.08 1125.24 1228.0 1241.28 1062.98 932.46 843.78 749.1 643.8 534.2 429.52 418.72 527.48 637.68 662.74 596.71 509.02 403.99 482.5 674.6 769.04 760.9 666.78 496.88 452.94 425.61 425.62 492.12 425.62 475.98 431.12 576.32 589.78 511.42 543.04 597.56 699.26 784.64 878.36 860.68 865.2 980.98 1113.08 1214.98 1262.34 1290.04 1372.0 1445.5 1380.56 1328.8 1308.9 1322.575 -999.9000 -999.9000 -999.9000 -999.9000 -999.9000 -999.9000 -999.9000 -999.9000 -999.9000 -999.9000 -999.9000 -999.9000 -999.9000 -999.9000 -999.9000 -999.9000 -999.9000 -999.9000 -999.9000 -999.9000 -999.9000 -999.9000 -999.9000 -999.9000 -999.9000 -999.9000 -999.9000
-999.9000 -999.9000 -999.9000 -999.9000 -999.9000 -999.9000 -999.9000 -999.9000 -999.9000 -999.9000 -999.9000 -999.9000 -999.9000 -999.9000 -999.9000 -999.9000 -999.9000 -999.9000 -999.9000 -999.9000 -999.9000 -999.9000 -999.9000 -999.9000 -999.9000 -999.9000 -999.9000 -999.9000 -999.9000 -999.9000 -999.9000 -999.9000 -999.9000 -999.9000 -999.9000 -999.9000 -999.9000 -999.9000 -999.9000 -999.9000 1612.7 1496.48 1384.86 1328.66 1331.66 1288.56 1156.3 1063.4 1004.94 991.4 988.39 988.38 988.38 992.42 951.88 1105.52 1187.34 1249.28 1338.98 1284.34 1165.88 1052.88 920.82 934.4 864.26 779.44 778.7 937.56 983.96 913.72 850.8 737.27 717.64 710.04 734.56 859.92 997.3 1083.52 1117.02 1180.5 1271.08 1260.44 1311.26 1334.74 1238.5 1127.92 1041.46 902.04 771.84 639.52 617.56 561.98 418.72 418.72 582.16 647.86 596.69 403.98 442.02 567.66 718.9 862.38 909.12 724.86 620.74 555.88 617.26 561.52 425.62 470.84 425.62 425.63 548.1 687.74 584.2 556.1 627.14 708.88 846.9 980.92 1025.34 995.26 1026.96 1098.94 1220.98 1350.88 1422.92 1467.32 -999.9000 -999.9000 -999.9000 -999.9000 -999.9000 -999.9000 -999.9000 -999.9000 -999.9000 -999.9000 -999.9000 -999.9000 -999.9000 -999.9000 -999.9000 -999.9000 -999.9000 -999.9000 -999.9000 -999.9000 -999.9000 -999.9000 -999.9000 -999.9000 -999.9000 -999.9000 -999.9000 -999.9000 -999.9000 -999.9000 -999.9000 -999.9000
-999.9000 -999.9000 -999.9000 -999.9000 -999.9000 -999.9000 -999.9000 -999.9000 -999.9000 -999.9000 -999.9000 -999.9000 -999.9000 -999.9000 -999.9000 -999.9000 -999.9000 -999.9000 -999.9000 -999.9000 -999.9000 -999.9000 -999.9000 -999.9000 -999.9000 -999.9000 -999.9000 -999.9000 -999.9000 -999.9000 -999.9000 -999.9000 -999.9000 -999.9000 -999.9000 -999.9000 -999.9000 -999.9000 -999.9000 -999.9000 1542.84 1430.48 1371.74 1292.12 1226.82 1142.16 1070.1 1099.96 1161.44 1143.72 1105.9 1033.76 1030.1 988.37 951.88 952.06 1091.62 1199.32 1174.22 1143.68 1037.56 990.16 885.52 778.7 778.7 778.7 856.28 1018.64 1149.6 1046.28 866.76 803.4 784.72 862.08 969.9 977.62 1033.72 1175.48 1255.12 1243.4 1213.7 1278.24 1338.32 1363.48 1247.14 1177.76 1083.06 984.96 870.42 772.8 738.84 575.98 396.28 396.28 479.16 588.96 589.52 464.36 403.97 524.86 622.46 737.52 866.86 824.02 778.72 708.38 746.34 727.1 558.7 516.56 591.14 597.3 606.9 723.48 774.02 673.16 627.3 660.3 738.9 838.16 960.76 1069.5 1172.56 1229.28 1289.64 1344.3 1392.48 -999.9000 -999.9000 -999.9000 -999.9000 -999.9000 -999.9000 -999.9000 -999.9000 -999.9000 -999.9000 -999.9000 -999.9000 -999.9000 -999.9000 -999.9000 -999.9000 -999.9000 -999.9000 -999.9000 -999.9000 -999.9000 -999.9000 -999.9000 -999.9000 -999.9000 -999.9000 -999.9000 -999.9000 -999.9000 -999.9000 -999.9000 -999.9000 -999.9000
-999.9000 -999.9000 -999.9000 -999.9000 -999.9000 -999.9000 -999.9000 -999.9000 -999.9000 -999.9000 -999.9000 -999.9000 -999.9000 -999.9000 -999.9000 -999.9000 -999.9000 -999.9000 -999.9000 -999.9000 -999.9000 -999.9000 -999.9000 -999.9000 -999.9000 -999.9000 -999.9000 -999.9000 -999.9000 -999.9000 -999.9000 -999.9000 -999.9000 -999.9000 -999.9000 -999.9000 -999.9000 -999.9000 -999.9000 -999.9000 -999.9000 1556.08 1466.72 1336.62 1185.28 1143.08 1185.96 1255.76 1305.78 1310.3 1215.4 1161.98 1224.48 1151.08 1035.58 911.98 1026.56 1063.5 972.34 969.4 920.26 811.88 811.87 849.02 877.16 949.98 1021.12 1083.56 1203.62 1074.5 912.4 956.96 971.8 1038.62 1119.28 1069.84 1199.42 1271.58 1196.36 1077.58 1082.44 1133.4 1234.6 1201.16 1246.0 1286.62 1189.1 1075.64 910.22 765.56 643.94 581.68 513.6 474.86 390.14 530.36 507.02 408.22 392.36 373.61 468.42 601.72 747.3 883.84 910.52 836.58 854.66 762.36 651.88 614.18 603.62 722.62 778.24 798.66 907.06 817.64 818.08 739.52 724.54 724.54 891.2 976.74 1053.46 1143.46 1205.02 1268.8 -999.9000 -999.9000 -999.9000 -999.9000 -999.9000 -999.9000 -999.9000 -999.9000 -999.9000 -999.9000 -999.9000 -999.9000 -999.9000 -999.9000 -999.9000 -999.9000 -999.9000 -999.9000 -999.9000 -999.9000 -999.9000 -999.9000 -999.9000 -999.9000 -999.9000 -999.9000 -999.9000 -999.9000 -999.9000 -999.9000 -999.9000 -999.9000 -999.9000 -999.9000
-999.9000 -999.9000 -999.9000 -999.9000 -999.9000 -999.9000 -999.9000 -999.9000 -999.9000 -999.9000 -999.9000 -999.9000 -999.9000 -999.9000 -999.9000 -999.9000 -999.9000 -999.9000 -999.9000 -999.9000 -999.9000 -999.9000 -999.9000 -999.9000 -999.9000 -999.9000 -999.9000 -999.9000 -999.9000 -999.9000 -999.9000 -999.9000 -999.9000 -999.9000 -999.9000 -999.9000 -999.9000 -999.9000 -999.9000 -999.9000 -999.9000 1482.38 1360.44 1246.58 1228.04 1336.28 1320.78 1374.7 1451.5 1399.78 1340.36 1342.2 1284.92 1191.88 1062.96 923.74 895.26 885.78 848.06 829.08 811.89 822.34 870.86 951.72 1063.54 1030.18 1166.12 1271.84 1246.06 1112.64 1048.44 1096.96 1163.88 1144.48 1253.34 1195.6 1268.94 1261.96 1155.1 977.04 940.32 1032.8 1043.64 1020.56 1088.54 1160.52 1103.06 1011.78 916.1 751.82 547.52 405.2 388.1 390.14 390.14 591.86 500.48 415.2 391.24 373.59 430.08 574.9 690.58 800.34 950.98 1027.44 976.22 824.3 799.82 718.06 631.58 735.2 845.72 945.0 1030.1 981.3 889.82 824.62 895.02 826.8 817.44 906.36 1014.56 1082.2 1229.08 -999.9000 -999.9000 -999.9000 -999.9000 -999.9000 -999.9000 -999.9000 -999.9000 -999.9000 -999.9000 -999.9000 -999.9000 -999.9000 -999.9000 -999.9000 -999.9000 -999.9000 -999.9000 -999.9000 -999.9000 -999.9000 -999.9000 -999.9000 -999.9000 -999.9000 -999.9000 -999.9000 -999.9000 -999.9000 -999.9000 -999.9000 -999.9000 -999.9000 -999.9000 -999.9000
-999.9000 -999.9000 -999.9000 -999.9000 -999.9000 -999.9000 -999.9000 -999.9000 -999.9000 -999.9000 -999.9000 -999.9000 -999.9000 -999.9000 -999.9000 -999.9000 -999.9000 -999.9000 -999.9000 -999.9000 -999.9000 -999.9000 -999.9000 -999.9000 -999.9000 -999.9000 -999.9000 -999.9000 -999.9000 -999.9000 -999.9000 -999.9000 -999.9000 -999.9000 -999.9000 -999.9000 -999.9000 -999.9000 -999.9000 -999.9000 1572.1 1431.92 1338.72 1341.18 1404.52 1465.1 1453.58 1472.2 1560.22 1544.8 1518.08 1485.24 1400.38 1273.72 1139.7 1030.52 948.68 910.16 850.48 839.56 868.5 972.8 1045.1 1007.14 1161.8 1204.62 1248.52 1378.56 1392.26 1299.72 1237.58 1299.04 1309.42 1301.32 1374.46 1335.94 1296.56 1186.56 1071.82 953.4 816.8 881.32 874.42 860.82 940.8 1102.08 1130.56 990.26 853.98 689.02 570.76 422.04 388.1 483.68 557.54 672.52 624.7 540.4 405.58 369.22 460.32 595.88 738.1 874.6 947.3 1020.04 1059.12 970.58 909.54 764.08 736.2 831.24 952.94 1001.56 1108.38 1082.54 948.98 915.06 991.66 1030.14 990.08 994.46 1103.86 1164.86 1248.4 -999.9000 -999.9000 -999.9000 -999.9000 -999.9000 -999.9000 -999.9000 -999.9000 -999.9000 -999.9000 -999.9000 -999.9000 -999.9000 -999.9000 -999.9000 -999.9000 -999.9000 -999.9000 -999.9000 -999.9000 -999.9000 -999.9000 -999.9000 -999.9000 -999.9000 -999.9000 -999.9000 -999.9000 -999.9000 -999.9000 -999.9000 -999.9000 -999.9000 -999.9000 -999.9000
-999.9000 -999.9000 -999.9000 -999.9000 -999.9000 -999.9000 -999.9000 -999.9000 -999.9000 -999.9000 -999.9000 -999.9000 -999.9000 -999.9000 -999.9000 -999.9000 -999.9000 -999.9000 -999.9000 -999.9000 -999.9000 -999.9000 -999.9000 -999.9000 -999.9000 -999.9000 -999.9000 -999.9000 -999.9000 -999.9000 -999.9000 -999.9000 -999.9000 -999.9000 -999.9000 -999.9000 -999.9000 -999.9000 -999.9000 -999.9000 1568.2 1494.04 1478.46 1521.64 1555.14 1602.44 1598.14 1534.68 1554.28 1486.2 1384.4 1331.52 1344.08 1297.64 1163.78 1039.4 900.78 850.48 908.62 1011.56 1060.48 1059.6 1168.6 1123.04 1211.16 1350.16 1417.32 1476.12 1462.14 1425.94 1414.92 1447.08 1452.4 1474.96 1408.32 1275.92 1171.12 1090.84 951.36 848.36 728.7 721.18 718.26 828.82 926.3 967.04 1046.52 892.92 734.36 619.52 494.7 361.04 419.98 586.0 591.8 520.46 516.04 597.82 464.02 369.02 488.22 592.24 716.14 805.54 790.98 899.66 869.78 899.38 952.28 906.4 876.24 851.62 969.28 1103.8 1183.26 1133.12 1008.22 1036.28 1096.76 1154.48 1119.9 1137.46 1175.9 1255.04 -999.9000 -999.9000 -999.9000 -999.9000 -999.9000 -999.9000 -999.9000 -999.9000 -999.9000 -999.9000 -999.9000 -999.9000 -999.9000 -999.9000 -999.9000 -999.9000 -999.9000 -999.9000 -999.9000 -999.9000 -999.9000 -999.9000 -999.9000 -999.9000 -999.9000 -999.9000 -999.9000 -999.9000 -999.9000 -999.9000 -999.9000 -999.9000 -999.9000 -999.9000 -999.9000 -999.9000
-999.9000 -999.9000 -999.9000 -999.9000 -999.9000 -999.9000 -999.9000 -999.9000 -999.9000 -999.9000 -999.9000 -999.9000 -999.9000 -999.9000 -999.9000 -999.9000 -999.9000 -999.9000 -999.9000 -999.9000 -999.9000 -999.9000 -999.9000 -999.9000 -999.9000 -999.9000 -999.9000 -999.9000 -999.9000 -999.9000 -999.9000 -999.9000 -999.9000 -999.9000 -999.9000 -999.9000 -999.9000 -999.9000 -999.9000 -999.9000 -999.9000 -999.9000 1636.35 1649.2 1616.68 1593.26 1550.22 1499.64 1444.06 1359.02 1266.02 1145.36 1172.86 1137.6 1090.94 1002.8 871.84 917.2 1029.42 1148.52 1229.1 1254.78 1277.0 1251.98 1310.6 1418.08 1436.68 1402.72 1287.28 1234.0 1275.28 1281.42 1301.2 1326.92 1335.44 1316.02 1249.8 1146.3 1015.86 862.24 742.5 706.54 566.28 566.28 694.54 803.06 904.02 825.12 672.92 544.62 406.86 352.1 389.16 509.82 402.54 339.26 376.78 445.56 459.64 369.02 528.52 562.04 574.26 618.36 680.22 723.76 698.88 773.82 899.26 1026.54 1056.0 999.8 969.2 1079.5 1200.14 1227.58 1156.98 1137.22 -999.9000 -999.9000 -999.9000 -999.9000 -999.9000 -999.9000 -999.9000 -999.9000 -999.9000 -999.9000 -999.9000 -999.9000 -999.9000 -999.9000 -999.9000 -999.9000 -999.9000 -999.9000 -999.9000 -999.9000 -999.9000 -999.9000 -999.9000 -999.9000 -999.9000 -999.9000 -999.9000 -999.9000 -999.9000 -999.9000 -999.9000 -999.9000 -999.9000 -999.9000 -999.9000 -999.9000 -999.9000 -999.9000 -999.9000 -999.9000 -999.9000 -999.9000
-999.9000 -999.9000 -999.9000 -999.9000 -999.9000 -999.9000 -999.9000 -999.9000 -999.9000 -999.9000 -999.9000 -999.9000 -999.9000 -999.9000 -999.9000 -999.9000 -999.9000 -999.9000 -999.9000 -999.9000 -999.9000 -999.9000 -999.9000 -999.9000 -999.9000 -999.9000 -999.9000 -999.9000 -999.9000 -999.9000 -999.9000 -999.9000 -999.9000 -999.9000 -999.9000 -999.9000 -999.9000 -999.9000 -999.9000 -999.9000 -999.9000 -999.9000 -999.9000 1558.78 1509.4 1496.02 1464.54 1389.48 1312.76 1204.46 1117.76 1002.46 1016.9 979.54 920.22 888.82 940.68 1054.06 1077.04 1205.5 1339.84 1388.06 1363.34 1427.78 1401.66 1305.22 1242.62 1201.66 1182.14 1072.24 1096.54 1135.34 1125.92 1132.34 1235.96 1319.04 1159.46 1040.46 1001.14 906.42 830.92 717.18 623.66 623.08 542.44 653.02 806.06 885.28 740.04 595.22 420.48 351.19 351.2 439.86 335.13 349.02 339.26 339.28 339.28 370.94 375.06 364.88 442.98 510.64 558.1 626.2 690.5 800.86 918.5 1028.02 1132.8 1146.48 1119.6 1153.64 1214.94 1305.55 -999.9000 -999.9000 -999.9000 -999.9000 -999.9000 -999.9000 -999.9000 -999.9000 -999.9000 -999.9000 -999.9000 -999.9000 -999.9000 -999.9000 -999.9000 -999.9000 -999.9000 -999.9000 -999.9000 -999.9000 -999.9000 -999.9000 -999.9000 -999.9000 -999.9000 -999.9000 -999.9000 -999.9000 -999.9000 -999.9000 -999.9000 -999.9000 -999.9000 -999.9000 -999.9000 -999.9000 -999.9000 -999.9000 -999.9000 -999.9000 -999.9000 -999.9000 -999.9000 -999.9000
-999.9000 -999.9000 -999.9000 -999.9000 -999.9000 -999.9000 -999.9000 -999.9000 -999.9000 -999.9000 -999.9000 -999.9000 -999.9000 -999.9000 -999.9000 -999.9000 -999.9000 -999.9000 -999.9000 -999.9000 -999.9000 -999.9000 -999.9000 -999.9000 -999.9000 -999.9000 -999.9000 -999.9000 -999.9000 -999.9000 -999.9000 -999.9000 -999.9000 -999.9000 -999.9000 -999.9000 -999.9000 -999.9000 -999.9000 -999.9000 -999.9000 -999.9000 -999.9000 1546.42 1381.66 1306.6 1270.76 1262.28 1164.66 1081.52 1004.1 1038.02 961.84 950.04 966.96 1026.66 1084.7 1178.84 1184.44 1291.52 1381.1 1476.24 1501.28 1472.72 1318.06 1197.48 1082.22 1007.0 1036.46 947.76 957.78 986.44 976.94 1113.92 1284.02 1298.78 1165.2 1017.78 883.56 818.52 783.4 801.36 780.0 720.46 542.44 583.16 732.88 732.14 750.5 645.82 461.02 351.18 397.88 438.08 390.2 335.13 366.68 436.0 349.68 442.02 467.18 375.06 358.69 455.64 541.4 656.4 789.86 870.88 972.6 1062.82 1141.68 1217.82 1264.32 1305.3 1305.5 -999.9000 -999.9000 -999.9000 -999.9000 -999.9000 -999.9000 -999.9000 -999.9000 -999.9000 -999.9000 -999.9000 -999.9000 -999.9000 -999.9000 -999.9000 -999.9000 -999.9000 -999.9000 -999.9000 -999.9000 -999.9000 -999.9000 -999.9000 -999.9000 -999.9000 -999.9000 -999.9000 -999.9000 -999.9000 -999.9000 -999.9000 -999.9000 -999.9000 -999.9000 -999.9000 -999.9000 -999.9000 -999.9000 -999.9000 -999.9000 -999.9000 -999.9000 -999.9000 -999.9000 -999.9000
-999.9000 -999.9000 -999.9000 -999.9000 -999.9000 -999.9000 -999.9000 -999.9000 -999.9000 -999.9000 -999.9000 -999.9000 -999.9000 -999.9000 -999.9000 -999.9000 -999.9000 -999.9000 -999.9000 -999.9000 -999.9000 -999.9000 -999.9000 -999.9000 -999.9000 -999.9000 -999.9000 -999.9000 -999.9000 -999.9000 -999.9000 -999.9000 -999.9000 -999.9000 -999.9000 -999.9000 -999.9000 -999.9000 -999.9000 -999.9000 -999.9000 -999.9000 -999.9000 1574.8 1464.24 1324.82 1208.86 1114.82 1089.54 1043.06 1125.36 1194.54 1097.88 1062.72 1046.14 1152.62 1260.12 1334.72 1361.82 1393.0 1426.06 1477.62 1519.2 1466.18 1333.38 1170.08 1042.94 923.52 843.06 877.84 805.0 835.4 977.42 1126.48 1155.26 1216.38 1203.88 1047.74 969.42 911.48 944.8 967.8 898.06 754.5 595.98 519.72 559.16 525.64 618.44 670.12 539.42 399.7 351.17 338.32 338.32 335.13 361.52 414.44 355.36 355.37 394.6 398.88 358.67 413.6 553.54 686.9 787.2 915.04 952.48 1047.24 1114.08 1170.7 1270.16 1337.9 -999.9000 -999.9000 -999.9000 -999.9000 -999.9000 -999.9000 -999.9000 -999.9000 -999.9000 -999.9000 -999.9000 -999.9000 -999.9000 -999.9000 -999.9000 -999.9000 -999.9000 -999.9000 -999.9000 -999.9000 -999.9000 -999.9000 -999.9000 -999.9000 -999.9000 -999.9000 -999.9000 -999.9000 -999.9000 -999.9000 -999.9000 -999.9000 -999.9000 -999.9000 -999.9000 -999.9000 -999.9000 -999.9000 -999.9000 -999.9000 -999.9000 -999.9000 -999.9000 -999.9000 -999.9000 -999.9000
-999.9000 -999.9000 -999.9000 -999.9000 -999.9000 -999.9000 -999.9000 -999.9000 -999.9000 -999.9000 -999.9000 -999.9000 -999.9000 -999.9000 -999.9000 -999.9000 -999.9000 -999.9000 -999.9000 -999.9000 -999.9000 -999.9000 -999.9000 -999.9000 -999.9000 -999.9000 -999.9000 -999.9000 -999.9000 -999.9000 -999.9000 -999.9000 -999.9000 -999.9000 -999.9000 -999.9000 -999.9000 -999.9000 -999.9000 -999.9000 -999.9000 -999.9000 -999.9000 -999.9000 1496.16 1376.2 1233.64 1240.54 1172.82 1158.06 1227.12 1270.96 1224.18 1140.12 1180.28 1283.0 1371.3 1401.4 1376.94 1310.52 1274.86 1376.08 1362.82 1289.54 1230.5 1229.48 1155.62 992.34 838.04 750.44 725.72 862.88 969.12 978.32 966.2 1106.92 1217.88 1185.58 1104.66 1032.96 1086.96 960.8 801.06 657.12 575.44 514.4 502.72 445.78 488.62 487.08 488.54 489.22 426.94 377.26 348.42 335.12 469.12 416.46 355.37 397.98 355.37 355.38 355.39 358.66 518.0 607.04 685.06 809.32 898.08 1002.66 1042.84 1141.14 1213.3 1290.36 -999.9000 -999.9000 -999.9000 -999.9000 -999.9000 -999.9000 -999.9000 -999.9000 -999.9000 -999.9000 -999.9000 -999.9000 -999.9000 -999.9000 -999.9000 -999.9000 -999.9000 -999.9000 -999.9000 -999.9000 -999.9000 -999.9000 -999.9000 -999.9000 -999.9000 -999.9000 -999.9000 -999.9000 -999.9000 -999.9000 -999.9000 -999.9000 -999.9000 -999.9000 -999.9000 -999.9000 -999.9000 -999.9000 -999.9000 -999.9000 -999.9000 -999.9000 -999.9000 -999.9000 -999.9000 -999.9000
-999.9000 -999.9000 -999.9000 -999.9000 -999.9000 -999.9000 -999.9000 -999.9000 -999.9000 -999.9000 -999.9000 -999.9000 -999.9000 -999.9000 -999.9000 -999.9000 -999.9000 -999.9000 -999.9000 -999.9000 -999.9000 -999.9000 -999.9000 -999.9000 -999.9000 -999.9000 -999.9000 -999.9000 -999.9000 -999.9000 -999.9000 -999.9000 -999.9000 -999.9000 -999.9000 -999.9000 -999.9000 -999.9000 -999.9000 -999.9000 -999.9000 -999.9000 -999.9000 -999.9000 1509.6 1420.32 1378.72 1351.92 1266.16 1242.4 1313.44 1396.46 1290.86 1277.62 1344.04 1417.7 1404.06 1281.1 1233.8 1177.76 1160.56 1233.48 1156.56 1143.28 1042.38 1036.42 1101.54 1036.38 904.94 805.22 656.62 754.48 781.26 834.86 966.26 1011.54 1111.84 1205.68 1205.28 1188.52 1088.64 933.78 811.36 772.96 697.4 646.98 647.2 557.98 445.78 445.78 432.72 401.01 400.99 461.96 406.52 335.11 505.52 564.64 526.02 580.62 492.78 408.8 413.2 487.04 521.36 567.52 606.72 745.82 851.5 915.04 979.84 1096.18 1181.5 1282.725 -999.9000 -999.9000 -999.9000 -999.9000 -999.9000 -999.9000 -999.9000 -999.9000 -999.9000 -999.9000 -999.9000 -999.9000 -999.9000 -999.9000 -999.9000 -999.9000 -999.9000 -999.9000 -999.9000 -999.9000 -999.9000 -999.9000 -999.9000 -999.9000 -999.9000 -999.9000 -999.9000 -999.9000 -999.9000 -999.9000 -999.9000 -999.9000 -999.9000 -999.9000 -999.9000 -999.9000 -999.9000 -999.9000 -999.9000 -999.9000 -999.9000 -999.9000 -999.9000 -999.9000 -999.9000 -999.9000
-999.9000 -999.9000 -999.9000 -999.9000 -999.9000 -999.9000 -999.9000 -999.9000 -999.9000 -999.9000 -999.9000 -999.9000 -999.9000 -999.9000 -999.9000 -999.9000 -999.9000 -999.9000 -999.9000 -999.9000 -999.9000 -999.9000 -999.9000 -999.9000 -999.9000 -999.9000 -999.9000 -999.9000 -999.9000 -999.9000 -999.9000 -999.9000 -999.9000 -999.9000 -999.9000 -999.9000 -999.9000 -999.9000 -999.9000 -999.9000 -999.9000 -999.9000 -999.9000 -999.9000 -999.9000 1567.275 1541.6 1493.425 1454.46 1410.28 -999.9000 -999.9000 1442.34 1446.86 1541.22 1494.22 1341.4 1195.42 1064.36 1047.06 1023.16 1105.66 980.7 960.66 940.5 875.16 928.88 878.74 929.9 826.18 674.9 579.94 677.46 827.32 835.94 940.04 1070.08 1052.46 1136.96 1192.94 1077.62 960.74 959.98 886.0 810.64 781.14 783.08 725.68 629.3 624.44 590.28 562.28 523.0 424.86 349.92 325.42 451.6 594.26 659.46 714.96 647.88 601.62 623.52 622.66 683.62 694.28 707.0 706.88 784.56 874.42 955.06 1030.7 1138.7 1252.46 -999.9000 -999.9000 -999.9000 -999.9000 -999.9000 -999.9000 -999.9000 -999.9000 -999.9000 -999.9000 -999.9000 -999.9000 -999.9000 -999.9000 -999.9000 -999.9000 -999.9000 -999.9000 -999.9000 -999.9000 -999.9000 -999.9000 -999.9000 -999.9000 -999.9000 -999.9000 -999.9000 -999.9000 -999.9000 -999.9000 -999.9000 -999.9000 -999.9000 -999.9000 -999.9000 -999.9000 -999.9000 -999.9000 -999.9000 -999.9000 -999.9000 -999.9000 -999.9000 -999.9000 -999.9000 -999.9000
-999.9000 -999.9000 -999.9000 -999.9000 -999.9000 -999.9000 -999.9000 -999.9000 -999.9000 -999.9000 -999.9000 -999.9000 -999.9000 -999.9000 -999.9000 -999.9000 -999.9000 -999.9000 -999.9000 -999.9000 -999.9000 -999.9000 -999.9000 -999.9000 -999.9000 -999.9000 -999.9000 -999.9000 -999.9000 -999.9000 -999.9000 -999.9000 -999.9000 -999.9000 -999.9000 -999.9000 -999.9000 -999.9000 -999.9000 -999.9000 -999.9000 -999.9000 -999.9000 -999.9000 -999.9000 -999.9000 -999.9000 -999.9000 -999.9000 -999.9000 -999.9000 -999.9000 -999.9000 -999.9000 -999.9000 1437.04 1273.78 1146.28 1047.6 921.42 903.14 920.5 911.08 792.14 843.86 751.62 734.16 782.28 872.42 779.32 668.48 541.42 589.08 693.92 791.9 939.2 1039.94 959.04 982.58 1085.64 1131.96 1114.1 1074.36 1031.5 960.68 954.34 918.04 810.42 743.14 670.56 614.14 576.48 487.52 358.16 325.3 325.4 377.08 427.5 572.26 647.4 623.5 687.64 758.08 756.66 687.96 725.62 811.02 844.28 875.48 912.9 1027.58 1091.9 1155.46 1242.06 -999.9000 -999.9000 -999.9000 -999.9000 -999.9000 -999.9000 -999.9000 -999.9000 -999.9000 -999.9000 -999.9000 -999.9000 -999.9000 -999.9000 -999.9000 -999.9000 -999.9000 -999.9000 -999.9000 -999.9000 -999.9000 -999.9000 -999.9000 -999.9000 -999.9000 -999.9000 -999.9000 -999.9000 -999.9000 -999.9000 -999.9000 -999.9000 -999.9000 -999.9000 -999.9000 -999.9000 -999.9000 -999.9000 -999.9000 -999.9000 -999.9000 -999.9000 -999.9000 -999.9000 -999.9000 -999.9000
-999.9000 -999.9000 -999.9000 -999.9000 -999.9000 -999.9000 -999.9000 -999.9000 -999.9000 -999.9000 -999.9000 -999.9000 -999.9000 -999.9000 -999.9000 -999.9000 -999.9000 -999.9000 -999.9000 -999.9000 -999.9000 -999.9000 -999.9000 -999.9000 -999.9000 -999.9000 -999.9000 -999.9000 -999.9000 -999.9000 -999.9000 -999.9000 -999.9000 -999.9000 -999.9000 -999.9000 -999.9000 -999.9000 -999.9000 -999.9000 -999.9000 -999.9000 -999.9000 -999.9000 -999.9000 -999.9000 -999.9000 -999.9000 -999.9000 -999.9000 -999.9000 -999.9000 -999.9000 -999.9000 -999.9000 1436.18 1295.4 1168.42 1099.1 983.92 878.48 766.04 736.1 716.68 686.2 609.06 589.22 639.72 691.58 662.8 570.04 490.92 615.92 729.06 805.64 901.74 1009.7 952.98 872.86 964.08 954.68 936.58 935.34 914.4 885.24 882.06 873.5 859.06 738.06 645.3 550.68 517.62 491.54 367.34 313.83 313.82 316.32 342.92 526.96 546.9 557.12 594.58 676.32 681.96 645.3 706.04 752.6 823.3 917.18 992.1 1008.98 1070.56 1152.88 1171.56 1218.72 -999.9000 -999.9000 -999.9000 -999.9000 -999.9000 -999.9000 -999.9000 -999.9000 -999.9000 -999.9000 -999.9000 -999.9000 -999.9000 -999.9000 -999.9000 -999.9000 -999.9000 -999.9000 -999.9000 -999.9000 -999.9000 -999.9000 -999.9000 -999.9000 -999.9000 -999.9000 -999.9000 -999.9000 -999.9000 -999.9000 -999.9000 -999.9000 -999.9000 -999.9000 -999.9000 -999.9000 -999.9000 -999.9000 -999.9000 -999.9000 -999.9000 -999.9000 -999.9000 -999.9000 -999.9000
-999.9000 -999.9000 -999.9000 -999.9000 -999.9000 -999.9000 -999.9000 -999.9000 -999.9000 -999.9000 -999.9000 -999.9000 -999.9000 -999.9000 -999.9000 -999.9000 -999.9000 -999.9000 -999.9000 -999.9000 -999.9000 -999.9000 -999.9000 -999.9000 -999.9000 -999.9000 -999.9000 -999.9000 -999.9000 -999.9000 -999.9000 -999.9000 -999.9000 -999.9000 -999.9000 -999.9000 -999.9000 -999.9000 -999.9000 -999.9000 -999.9000 -999.9000 -999.9000 -999.9000 -999.9000 -999.9000 -999.9000 -999.9000 -999.9000 -999.9000 -999.9000 -999.9000 -999.9000 -999.9000 -999.9000 -999.9000 1390.62 1258.92 1132.82 991.6 866.34 778.26 696.08 634.18 620.0 619.98 570.22 539.54 536.94 489.24 488.42 453.86 586.22 701.98 786.18 911.06 1022.3 1001.48 895.76 829.06 791.22 755.4 766.14 794.96 713.48 698.1 699.74 752.54 702.78 605.9 539.66 521.18 459.22 427.94 396.2 326.82 313.81 437.58 574.2 563.74 488.22 628.96 604.66 611.94 660.46 717.5 803.7 867.12 934.56 1015.34 1084.22 1070.9 1044.42 1037.54 1094.0 -999.9000 -999.9000 -999.9000 -999.9000 -999.9000 -999.9000 -999.9000 -999.9000 -999.9000 -999.9000 -999.9000 -999.9000 -999.9000 -999.9000 -999.9000 -999.9000 -999.9000 -999.9000 -999.9000 -999.9000 -999.9000 -999.9000 -999.9000 -999.9000 -999.9000 -999.9000 -999.9000 -999.9000 -999.9000 -999.9000 -999.9000 -999.9000 -999.9000 -999.9000 -999.9000 -999.9000 -999.9000 -999.9000 -999.9000 -999.9000 -999.9000 -999.9000 -999.9000 -999.9000 -999.9000
-999.9000 -999.9000 -999.9000 -999.9000 -999.9000 -999.9000 -999.9000 -999.9000 -999.9000 -999.9000 -999.9000 -999.9000 -999.9000 -999.9000 -999.9000 -999.9000 -999.9000 -999.9000 -999.9000 -999.9000 -999.9000 -999.9000 -999.9000 -999.9000 -999.9000 -999.9000 -999.9000 -999.9000 -999.9000 -999.9000 -999.9000 -999.9000 -999.9000 -999.9000 -999.9000 -999.9000 -999.9000 -999.9000 -999.9000 -999.9000 -999.9000 -999.9000 -999.9000 -999.9000 -999.9000 -999.9000 -999.9000 -999.9000 -999.9000 -999.9000 -999.9000 -999.9000 -999.9000 -999.9000 -999.9000 -999.9000 -999.9000 1345.34 1193.92 1052.26 938.36 820.88 743.22 762.9 764.0 719.92 722.7 693.2 567.56 573.6 579.08 510.2 443.8 561.48 700.58 801.26 847.66 846.72 949.42 940.14 907.72 831.46 730.64 669.22 636.48 579.1 550.04 562.9 660.68 710.7 641.36 582.28 518.44 462.08 389.84 326.82 305.66 344.58 422.44 441.98 496.54 603.16 707.9 747.9 740.72 780.88 827.22 896.64 947.34 1000.2 1034.14 947.94 901.16 911.72 965.78 1023.34 -999.9000 -999.9000 -999.9000 -999.9000 -999.9000 -999.9000 -999.9000 -999.9000 -999.9000 -999.9000 -999.9000 -999.9000 -999.9000 -999.9000 -999.9000 -999.9000 -999.9000 -999.9000 -999.9000 -999.9000 -999.9000 -999.9000 -999.9000 -999.9000 -999.9000 -999.9000 -999.9000 -999.9000 -999.9000 -999.9000 -999.9000 -999.9000 -999.9000 -999.9000 -999.9000 -999.9000 -999.9000 -999.9000 -999.9000 -999.9000 -999.9000 -999.9000 -999.9000 -999.9000
-999.9000 -999.9000 -999.9000 -999.9000 -999.9000 -999.9000 -999.9000 -999.9000 -999.9000 -999.9000 -999.9000 -999.9000 -999.9000 -999.9000 -999.9000 -999.9000 -999.9000 -999.9000 -999.9000 -999.9000 -999.9000 -999.9000 -999.9000 -999.9000 -999.9000 -999.9000 -999.9000 -999.9000 -999.9000 -999.9000 -999.9000 -999.9000 -999.9000 -999.9000 -999.9000 -999.9000 -999.9000 -999.9000 -999.9000 -999.9000 -999.9000 -999.9000 -999.9000 -999.9000 -999.9000 -999.9000 -999.9000 -999.9000 -999.9000 -999.9000 -999.9000 -999.9000 -999.9000 -999.9000 -999.9000 -999.9000 -999.9000 -999.9000 1199.56 1062.9 988.86 875.96 855.28 897.96 920.14 827.4 836.7 766.9 734.3 737.82 735.56 596.4 443.8 469.64 574.52 610.28 691.38 693.14 839.6 854.7 910.58 957.38 878.3 798.64 782.3 729.42 658.12 518.92 559.68 698.06 702.76 640.9 521.86 430.42 345.06 354.42 312.94 305.66 447.86 503.32 559.14 632.46 715.54 778.7 799.58 849.8 874.1 810.68 834.44 894.7 939.0 863.3 784.36 792.16 873.62 951.18 -999.9000 -999.9000 -999.9000 -999.9000 -999.9000 -999.9000 -999.9000 -999.9000 -999.9000 -999.9000 -999.9000 -999.9000 -999.9000 -999.9000 -999.9000 -999.9000 -999.9000 -999.9000 -999.9000 -999.9000 -999.9000 -999.9000 -999.9000 -999.9000 -999.9000 -999.9000 -999.9000 -999.9000 -999.9000 -999.9000 -999.9000 -999.9000 -999.9000 -999.9000 -999.9000 -999.9000 -999.9000 -999.9000 -999.9000 -999.9000 -999.9000 -999.9000 -999.9000 -999.9000
